# .PCD v0.7 - Point Cloud Data file format
VERSION 0.7
FIELDS x y z rgb
SIZE 4 4 4 4
TYPE F F F F
COUNT 1 1 1 1
WIDTH 1086
HEIGHT 1
VIEWPOINT 0 0 0 1 0 0 0
POINTS 1086
DATA ascii
1.2279667 0.39418763 2.1670003 1.180029e-38
1.2417254 0.3873083 2.1670003 1.1338957e-38
1.1309676 0.40244287 2.1670001 1.1983973e-38
-0.76534069 0.37190956 2.1896667 1.4561512e-38
-0.75151157 0.36783662 2.184 1.42878e-38
-0.72907722 0.37180859 2.1810002 1.4196324e-38
-0.69163239 0.37402475 2.194 1.3368009e-38
-0.54166049 0.37708333 2.1875 1.530124e-38
-0.52603233 0.37395522 2.1875 1.5670382e-38
-0.50850987 0.37394032 2.1853333 1.7327022e-38
-0.49092689 0.37443975 2.1842499 1.7787978e-38
-0.47532976 0.37547833 2.1842501 1.786542e-38
0.23193714 0.37820381 2.194 1.4103035e-38
0.22640859 0.38150191 2.1810002 1.4565099e-38
0.45489427 0.38427141 2.181 1.1608352e-38
0.47754765 0.38996097 2.1896667 1.1981798e-38
0.6303665 0.38689202 2.1888001 1.1794536e-38
0.65090007 0.38739026 2.1882222 1.1058051e-38
0.67083132 0.3874979 2.1875 1.0782903e-38
0.6916526 0.39016214 2.1907501 1.1060569e-38
0.70974159 0.39213401 2.194 1.207256e-38
0.72746295 0.38869992 2.1849 1.207185e-38
0.75043839 0.38772535 2.1888001 1.216656e-38
0.77048618 0.38558307 2.1911113 1.2811567e-38
0.79101795 0.38940737 2.1865716 1.3364743e-38
0.81066263 0.39179188 2.1865716 1.3182507e-38
0.82233876 0.39135396 2.1896667 1.2813011e-38
0.87447715 0.38842571 2.181 1.2534622e-38
0.89088643 0.39329025 2.1907499 1.2351308e-38
0.91280788 0.39537355 2.1907501 1.1983251e-38
0.92356956 0.39491999 2.194 1.2165493e-38
1.0030676 0.39831084 2.1896667 1.2444957e-38
1.0761048 0.39909905 2.194 1.1708461e-38
1.0864428 0.39791667 2.1875 1.1983254e-38
1.1116266 0.39909905 2.194 1.198254e-38
1.1319568 0.39417282 2.1865716 1.1982537e-38
1.1518341 0.39228263 2.1896667 1.2259489e-38
1.1718719 0.39791667 2.1875 1.2168003e-38
1.1898419 0.39681295 2.1847143 1.2261624e-38
1.2142922 0.39850789 2.1907501 1.1711332e-38
1.2283323 0.39239237 2.1865716 1.1525506e-38
1.2459759 0.39197111 2.1853333 1.1522985e-38
1.2608258 0.3967343 2.181 1.1614821e-38
1.2934153 0.39909905 2.194 1.0971986e-38
0.99553525 0.40306982 2.1853333 1.2166213e-38
1.0008819 0.40327808 2.194 1.2259128e-38
1.1091943 0.40088856 2.181 1.1797428e-38
1.2088971 0.40088856 2.181 1.2262705e-38
-0.77174854 0.3722057 2.2079999 1.4377125e-38
-0.74230856 0.3722057 2.2079999 1.4105566e-38
-0.73810285 0.3722057 2.2079999 1.4197403e-38
-0.70235425 0.37641141 2.2079999 1.327689e-38
-0.68931657 0.37388799 2.2079999 1.382862e-38
-0.54884571 0.37641141 2.2079999 1.5485633e-38
-0.53622854 0.37641141 2.2079999 1.5487064e-38
-0.51099426 0.37641141 2.2079999 1.714444e-38
-0.48575997 0.37535998 2.2079999 1.7868293e-38
-0.47734857 0.3722057 2.2079999 1.8234925e-38
-0.70656002 0.38061714 2.2079999 1.373642e-38
0.47103998 0.38902855 2.2079999 1.1884938e-38
0.48575997 0.39323428 2.2079999 1.1703781e-38
0.50258285 0.39323428 2.2079999 1.2257671e-38
0.62875426 0.3869257 2.2079999 1.2164033e-38
0.64978284 0.38482285 2.2079999 1.1058055e-38
0.66940951 0.38762665 2.2079999 1.0782547e-38
0.69183999 0.38902855 2.2079999 1.0783626e-38
0.71076566 0.3911314 2.2079999 1.1613382e-38
0.72548568 0.38902855 2.2079999 1.170486e-38
0.75177145 0.38482285 2.2079999 1.2257678e-38
0.76754284 0.38482285 2.2079999 1.2719017e-38
0.79487997 0.38902855 2.2079999 1.3732083e-38
0.8096 0.39323428 2.2079999 1.3457296e-38
0.82642281 0.38902855 2.2079999 1.2995244e-38
0.8886674 0.38986969 2.2079999 1.2259117e-38
0.90422857 0.39743999 2.2079999 1.226055e-38
0.9736228 0.39744002 2.2079999 1.2995967e-38
1.0142782 0.39744002 2.2079999 1.244531e-38
1.1082057 0.39743999 2.2079999 1.2167284e-38
1.14816 0.38902855 2.2079999 1.2257692e-38
1.2101942 0.39743999 2.2079999 1.2077954e-38
1.2280686 0.39533713 2.2079999 1.1159243e-38
1.2469943 0.3911314 2.2079999 1.1705587e-38
0.97782856 0.40164569 2.2079999 1.2626827e-38
0.98904383 0.40304762 2.2079999 1.2350963e-38
1.0030628 0.40164569 2.2079999 1.2261645e-38
1.0913829 0.40164569 2.2079999 1.2167283e-38
1.13344 0.4048 2.2079999 1.1797422e-38
-0.74544382 0.37379715 2.23 1.4197042e-38
-0.72771335 0.37834382 2.2276669 1.4288871e-38
-0.70982462 0.37367225 2.2307775 1.410628e-38
-0.6923508 0.37095651 2.23 1.4473628e-38
-0.54949999 0.37834382 2.2276669 1.5394514e-38
-0.50705051 0.37834382 2.2276669 1.6960755e-38
-0.49427047 0.3770943 2.237 1.7868648e-38
0.4912878 0.3941381 2.237 1.1336437e-38
0.50598425 0.39324415 2.2292221 1.1887452e-38
0.68601334 0.38987714 2.237 1.0690715e-38
0.71112782 0.39055389 2.227 1.1431144e-38
0.73041433 0.38743716 2.223 1.1887815e-38
0.74735141 0.38743716 2.223 1.2163325e-38
0.77549338 0.38561618 2.237 1.2903767e-38
0.78188473 0.38561618 2.237 1.2812646e-38
0.81298292 0.39167145 2.223 1.3364022e-38
0.83123004 0.39122289 2.2265 1.2902688e-38
0.84153807 0.38987714 2.237 1.2717225e-38
0.89555144 0.39167145 2.223 1.244207e-38
0.91223067 0.39519867 2.2286 1.2258398e-38
0.92837018 0.39614767 2.2323332 1.2167287e-38
0.95019239 0.39839906 2.237 1.2625754e-38
0.97373086 0.39484516 2.2314 1.2997406e-38
0.99213719 0.39500436 2.2338886 1.3275064e-38
1.0106453 0.39648956 2.2352498 1.2997042e-38
1.0263314 0.39565191 2.2335 1.2169439e-38
1.0886734 0.39839906 2.237 1.1338967e-38
1.1185 0.39839906 2.237 1.180102e-38
1.1227609 0.39839906 2.237 1.1801734e-38
1.1556529 0.38911903 2.2265 1.2168004e-38
1.1673305 0.39122954 2.2265 1.2350609e-38
1.1866753 0.39697874 2.237 1.2353121e-38
1.2088886 0.39590573 2.223 1.2353466e-38
1.2293544 0.3944943 2.223 1.1249639e-38
1.2479718 0.39331588 2.2323334 1.1340399e-38
1.2655029 0.3941381 2.237 1.1613754e-38
0.99294007 0.40155146 2.223 1.2813372e-38
1.0066869 0.40288711 2.2264998 1.2445314e-38
1.0929344 0.40266001 2.237 1.143152e-38
1.1104765 0.40182003 2.2323332 1.1891419e-38
1.1352417 0.40334573 2.2314 1.207473e-38
1.1461961 0.40266001 2.237 1.2167278e-38
1.1792486 0.40014002 2.223 1.2444234e-38
1.18934 0.40140003 2.23 1.2352757e-38
1.2766372 0.40225714 2.223 1.1522985e-38
1.3123734 0.40266001 2.237 1.1248565e-38
-0.74423242 0.37962288 2.2520001 1.4288158e-38
-0.72793221 0.37876502 2.2520001 1.4381068e-38
-0.70991623 0.37247369 2.2520003 1.493388e-38
-0.52546668 0.37962288 2.2520001 1.6131363e-38
-0.51045334 0.37855053 2.2520001 1.6683441e-38
-0.49972954 0.37533334 2.2520001 1.7774311e-38
0.47613716 0.39249143 2.2520001 1.1515083e-38
0.49222288 0.39249143 2.2520001 1.1243884e-38
0.50616384 0.39249143 2.2520001 1.1519388e-38
0.67131048 0.39249143 2.2520001 1.0874743e-38
0.69704765 0.39249143 2.2520001 1.0691787e-38
0.70991623 0.39163354 2.2520001 1.0969454e-38
0.72793221 0.38734403 2.2520001 1.1888172e-38
0.76996958 0.38820192 2.2520003 1.2533191e-38
0.91259623 0.39356381 2.2520001 1.1982535e-38
0.92868197 0.39463621 2.2520001 1.2350242e-38
0.95227432 0.39678097 2.2520001 1.2901262e-38
0.97157717 0.39678097 2.2520001 1.2997405e-38
0.98873532 0.39334938 2.2520001 1.3181076e-38
1.0118988 0.39334935 2.2520001 1.3087444e-38
1.0337753 0.39678097 2.2520001 1.216908e-38
1.0402095 0.39678097 2.2520001 1.1986481e-38
1.0888242 0.39678097 2.2520003 1.0879785e-38
1.108842 0.39678097 2.2520001 1.142972e-38
1.126 0.39678097 2.2520001 1.1616983e-38
1.1646057 0.39678097 2.2520001 1.1891419e-38
1.1946324 0.39678097 2.2520001 1.2352764e-38
1.2568305 0.39249143 2.2520001 1.088014e-38
1.2632648 0.39249143 2.2520001 1.1062737e-38
1.0423543 0.40107051 2.2520001 1.2260556e-38
1.108842 0.40107051 2.2520001 1.1522998e-38
1.1317194 0.40107054 2.2520003 1.1801015e-38
1.1495925 0.40107051 2.2520001 1.1984325e-38
1.1603162 0.40107051 2.2520001 1.1983606e-38
1.2096457 0.40428764 2.2520001 1.2260923e-38
1.2203696 0.40321526 2.2520001 1.2353826e-38
1.3318971 0.40536001 2.2520001 1.0972701e-38
-0.74885905 0.37766668 2.266 1.4288876e-38
-0.73159432 0.37550858 2.266 1.4840248e-38
-0.52225906 0.37766668 2.266 1.622427e-38
-0.51146853 0.37766668 2.266 1.6956065e-38
0.99919814 0.37766668 2.266 1.1888902e-38
-0.55894667 0.38198286 2.266 1.567038e-38
-0.53304952 0.38198286 2.266 1.6131e-38
0.49204573 0.39061525 2.266 1.1057701e-38
0.51060534 0.389752 2.266 1.1242445e-38
0.58657026 0.38802552 2.266 1.2902684e-38
0.6021086 0.39493144 2.266 1.2994873e-38
0.67116761 0.39061525 2.266 1.0507405e-38
0.69490671 0.39061525 2.266 1.068892e-38
0.71432954 0.38814887 2.266 1.1059139e-38
0.72974449 0.38383263 2.266 1.1703786e-38
0.74540609 0.38802552 2.266 1.1979656e-38
0.76612383 0.39061525 2.266 1.2164048e-38
0.7905823 0.38486034 2.2660003 1.2904123e-38
0.83086669 0.39493144 2.266 1.3178193e-38
0.84813142 0.39277333 2.266 1.2442076e-38
0.91287434 0.39061528 2.2660003 1.1891776e-38
0.93013906 0.3923417 2.266 1.2350602e-38
0.94863707 0.39554802 2.266 1.2718668e-38
0.96898478 0.39752117 2.266 1.2994531e-38
0.99488193 0.389752 2.266 1.2903408e-38
1.0086937 0.38673067 2.2660003 1.2351671e-38
1.0304905 0.39385238 2.266 1.216765e-38
1.0445181 0.39493144 2.266 1.179922e-38
1.0984704 0.39924762 2.266 1.0970187e-38
1.1301227 0.39780891 2.2660003 1.1615185e-38
1.154581 0.39924762 2.2660003 1.1892847e-38
1.1653714 0.39924762 2.266 1.1983965e-38
1.2085333 0.39924762 2.266 1.2261283e-38
1.2775924 0.39493144 2.266 1.1244982e-38
1.2840667 0.39493144 2.266 1.1336818e-38
1.2171657 0.40356383 2.266 1.2261289e-38
1.22364 0.40356383 2.266 1.2262001e-38
1.3099638 0.4064413 2.2660003 1.1522628e-38
1.335861 0.40356383 2.266 1.1157087e-38
1.3423352 0.40356383 2.266 1.1156369e-38
-0.5274505 0.37612098 2.2916667 1.6133141e-38
-0.51604795 0.37670064 2.2863333 1.7138288e-38
-0.74512661 0.38016665 2.2809999 1.456438e-38
-0.56526762 0.38194448 2.2916667 1.5761498e-38
-0.5503009 0.38434666 2.293 1.5855129e-38
-0.53440571 0.38016665 2.2809999 1.6039879e-38
0.4757514 0.39320093 2.2809999 1.0964785e-38
0.48947141 0.3911396 2.2842 1.0965148e-38
0.50833708 0.38538036 2.2809999 1.105806e-38
0.52998191 0.39365733 2.2938001 1.1516873e-38
0.59450823 0.38692516 2.2809999 1.2717575e-38
0.60554326 0.38919711 2.283 1.2625738e-38
0.62565905 0.39595905 2.2969999 1.2900167e-38
0.64097238 0.3915838 2.2969999 1.2902674e-38
0.7143082 0.38949078 2.289 1.087331e-38
0.75164378 0.38668379 2.2809999 1.2164047e-38
0.77114147 0.39278838 2.2938001 1.2348438e-38
0.78788662 0.39067459 2.2916667 1.2902694e-38
0.83602619 0.39457238 2.289 1.3085999e-38
0.84691858 0.39457238 2.289 1.2534267e-38
0.91124761 0.39458001 2.289 1.2810853e-38
0.9319514 0.39320093 2.2809999 1.2167292e-38
0.95023787 0.39255404 2.2874 1.2903058e-38
0.97218955 0.39583302 2.2836666 1.3178921e-38
0.99208522 0.39595905 2.2969999 1.2812651e-38
1.0014676 0.39320093 2.2809999 1.3272906e-38
1.0275362 0.39102855 2.2809999 1.1982538e-38
1.0529248 0.39458001 2.289 1.1521917e-38
1.1285518 0.39537328 2.2809999 1.1520114e-38
1.1745338 0.39537331 2.2810001 1.1801014e-38
1.2100161 0.3975457 2.2809999 1.2169452e-38
0.82910764 0.4003343 2.2969999 1.3455496e-38
1.15227 0.40095672 2.2906001 1.1340034e-38
1.1674594 0.4003343 2.2969999 1.1708811e-38
1.2075657 0.40033427 2.2969999 1.2259851e-38
1.2316296 0.40325111 2.2969999 1.2170162e-38
1.2403799 0.40470952 2.2969999 1.2170159e-38
1.3480854 0.40521809 2.2916667 1.1248565e-38
-0.54387051 0.37652573 2.312 1.5765086e-38
-0.53726476 0.37652573 2.312 1.5765444e-38
-0.56478858 0.38423237 2.312 1.5762573e-38
-0.55179733 0.38357183 2.312 1.5855845e-38
-0.53946668 0.38092953 2.312 1.5948759e-38
0.49102476 0.39193904 2.312 1.0781837e-38
0.53946668 0.39414096 2.312 1.1609427e-38
0.54607236 0.39854476 2.312 1.1608354e-38
0.61433142 0.38973716 2.312 1.262538e-38
0.62974477 0.39854476 2.312 1.2809049e-38
0.70901334 0.39414096 2.312 1.0688202e-38
0.72002286 0.38973716 2.312 1.0872956e-38
0.77286863 0.39267302 2.312 1.2440274e-38
0.78387809 0.38973716 2.312 1.2902685e-38
0.81690669 0.39634287 2.312 1.2997033e-38
0.83158606 0.39781079 2.3120003 1.3087435e-38
0.85654098 0.39414096 2.312 1.2350596e-38
0.86534858 0.39414096 2.312 1.2166928e-38
0.91819429 0.39414096 2.312 1.2626104e-38
0.93360764 0.39414096 2.312 1.1983254e-38
0.94902098 0.39414096 2.312 1.24428e-38
0.97324193 0.39414096 2.312 1.2995974e-38
0.99305904 0.3956089 2.312 1.2813009e-38
1.0062706 0.3956089 2.312 1.2904125e-38
1.0459048 0.39634287 2.312 1.1798151e-38
1.1758171 0.39854476 2.312 1.1708095e-38
1.1868267 0.39854476 2.312 1.1893205e-38
1.224259 0.39854476 2.312 1.1893938e-38
1.2396724 0.40294859 2.312 1.2077605e-38
1.318941 0.40735239 2.312 1.1154933e-38
1.3312716 0.40823317 2.312 1.1339317e-38
1.3485094 0.40986887 2.312 1.1522991e-38
1.3673829 0.40735239 2.312 1.1340402e-38
-0.5496152 0.37675238 2.3269999 1.5764367e-38
-0.53853428 0.37453619 2.3269999 1.5673613e-38
-0.56291234 0.38340095 2.3269999 1.5945885e-38
0.49421045 0.3944819 2.3269999 1.0782553e-38
0.54961526 0.39669809 2.3269999 1.1701627e-38
0.56512856 0.39669809 2.3269999 1.2067545e-38
0.62939811 0.39558998 2.3269999 1.2809768e-38
0.64491141 0.39522064 2.3270001 1.2994513e-38
0.71582949 0.39226571 2.3269999 1.059709e-38
0.72026187 0.39226571 2.3269999 1.0778248e-38
0.77788281 0.39226571 2.3269999 1.2625381e-38
0.78896379 0.39226571 2.3269999 1.2809774e-38
0.80447716 0.39226574 2.3270001 1.3087078e-38
0.83771992 0.39669809 2.3269999 1.2995597e-38
0.85323328 0.39226574 2.3270001 1.244243e-38
0.86209804 0.39226571 2.3269999 1.2166927e-38
0.93079996 0.39669809 2.3269999 1.2349877e-38
0.95961046 0.39669809 2.3269999 1.2810861e-38
0.9950695 0.39669809 2.3269999 1.2905205e-38
1.0172313 0.39226574 2.3270001 1.2533191e-38
1.0216639 0.39226574 2.3270001 1.2440997e-38
1.1767972 0.39669809 2.3269999 1.1431155e-38
1.2299857 0.39669809 2.3269999 1.207545e-38
0.56512856 0.40113047 2.3269999 1.1883871e-38
1.0704199 0.40113047 2.3269999 1.1614112e-38
1.1723648 0.4011305 2.3270001 1.1246047e-38
1.2255533 0.40113047 2.3269999 1.2076892e-38
1.2521477 0.40334666 2.3269999 1.1985045e-38
1.2610123 0.40556285 2.3269999 1.1985048e-38
1.3513222 0.40500879 2.3269999 1.1522629e-38
1.3681282 0.4040854 2.3269999 1.1339323e-38
-0.56854039 0.37827292 2.3558002 1.6130987e-38
-0.55446571 0.37366042 2.3494 1.5856201e-38
-0.58240283 0.38603714 2.3429999 1.5854053e-38
-0.57124567 0.38157427 2.3429999 1.6038438e-38
0.47975713 0.39496285 2.3429999 1.0966943e-38
0.48979527 0.39586186 2.3483334 1.0875105e-38
0.50600189 0.39406475 2.3509998 1.0784352e-38
0.53695333 0.39765999 2.359 1.0874383e-38
0.55036479 0.3931689 2.3517275 1.1610512e-38
0.56739634 0.39329454 2.352143 1.2255884e-38
0.6358819 0.3963114 2.3509998 1.2718649e-38
0.64675742 0.39393646 2.352143 1.2717927e-38
0.66501331 0.39765999 2.359 1.2717563e-38
0.71628857 0.39496285 2.3429999 1.0783632e-38
0.72667426 0.39249998 2.355 1.0965874e-38
0.79037201 0.3896074 2.3430002 1.2720088e-38
0.83455426 0.39942572 2.3429999 1.2996675e-38
0.84924001 0.39765999 2.359 1.2719372e-38
0.87011606 0.39329892 2.352143 1.1982178e-38
0.88592857 0.39473903 2.355 1.1890704e-38
0.9571476 0.39824855 2.3536668 1.2259126e-38
0.97288096 0.39586186 2.3483334 1.2719745e-38
0.98943597 0.39622194 2.3558002 1.2536788e-38
1.0092895 0.39698571 2.355 1.2720812e-38
1.0252289 0.39616224 2.359 1.2534626e-38
1.1804256 0.39942572 2.3429999 1.1337888e-38
1.2349632 0.39786857 2.3469999 1.216764e-38
1.24825 0.39854285 2.3509998 1.2076519e-38
1.370097 0.39942572 2.3429999 1.1245686e-38
1.07166 0.40365109 2.359 1.1520129e-38
1.08514 0.40215334 2.359 1.1429e-38
1.1697038 0.40480793 2.3483334 1.1244969e-38
1.1839933 0.40215331 2.359 1.1245691e-38
1.2269905 0.40302092 2.3510001 1.2260557e-38
1.2516955 0.40331015 2.3483334 1.2077242e-38
1.2661624 0.40302092 2.3510001 1.180101e-38
1.3098485 0.40388855 2.3429999 1.0420246e-38
1.3300267 0.40664667 2.359 1.0695043e-38
1.3510463 0.40733773 2.3525999 1.1154571e-38
1.3659732 0.40215331 2.359 1.12464e-38
1.3890404 0.40422949 2.3536668 1.1154219e-38
-0.58155429 0.37789714 2.3759999 1.631574e-38
-0.57476568 0.37789714 2.3759999 1.6315736e-38
-0.60418284 0.3846857 2.3759999 1.6037724e-38
-0.59286857 0.38619429 2.3759999 1.60388e-38
0.49330285 0.396 2.3759999 1.1059496e-38
0.50461709 0.396 2.3759999 1.0876186e-38
0.53629714 0.396 2.3759999 1.1058776e-38
0.54896909 0.39237943 2.3759999 1.1426841e-38
0.57024002 0.39147428 2.3759999 1.2441711e-38
0.6336 0.396 2.3759999 1.2257678e-38
0.64672452 0.39328456 2.3759999 1.1890333e-38
0.66980565 0.39486855 2.3759999 1.1703067e-38
0.73316574 0.39147428 2.3759999 1.1336091e-38
0.79426283 0.39147431 2.3759999 1.2627176e-38
0.81236571 0.396 2.3759999 1.2720451e-38
0.83273137 0.396 2.3759999 1.2534262e-38
0.85422856 0.39486858 2.3759999 1.253319e-38
0.87029475 0.39147428 2.3759999 1.1981458e-38
0.88779426 0.39147431 2.3759999 1.1705595e-38
0.97529137 0.396 2.3759999 1.2627912e-38
0.99791998 0.396 2.3759999 1.2261996e-38
1.011497 0.396 2.3759999 1.2536062e-38
0.83725715 0.40052569 2.3759999 1.2996671e-38
0.8440457 0.40052569 2.3759999 1.2996313e-38
0.90966856 0.40052569 2.3759999 1.2351672e-38
0.95039999 0.40052569 2.3759999 1.2258399e-38
0.97529137 0.40052569 2.3759999 1.2626834e-38
1.0839086 0.40505141 2.3759999 1.1519408e-38
1.1925256 0.40203428 2.3759999 1.1245689e-38
1.2015771 0.40052569 2.3759999 1.1339321e-38
1.2423085 0.40052569 2.3759999 1.2259474e-38
1.2672 0.40052569 2.3759999 1.1985751e-38
1.3350856 0.40505141 2.3759999 1.0512446e-38
1.3515723 0.40763754 2.3759999 1.078616e-38
1.3712914 0.40278855 2.3759999 1.0694313e-38
1.3893942 0.40052569 2.3759999 1.1061298e-38
1.4052343 0.40505141 2.3759999 1.0878351e-38
-0.61109906 0.38442856 2.392 1.5945169e-38
-0.5957219 0.38158095 2.392 1.6315028e-38
0.49434668 0.3941105 2.392 1.1151694e-38
0.509534 0.39562923 2.392 1.0968382e-38
0.5239619 0.39866665 2.392 1.0967311e-38
0.55357713 0.39183238 2.392 1.1519758e-38
0.56952381 0.38727617 2.392 1.2534266e-38
0.58091426 0.38955429 2.392 1.2720092e-38
0.65836954 0.39411047 2.392 1.1520837e-38
0.66292572 0.39411047 2.392 1.1245328e-38
0.73582476 0.38955429 2.392 1.1615191e-38
0.81555808 0.39411047 2.392 1.2537136e-38
0.83059353 0.39593294 2.392 1.235203e-38
0.84907871 0.39541227 2.392 1.2257323e-38
0.87023234 0.38955426 2.3920002 1.1981458e-38
0.8930133 0.38955429 2.392 1.1613041e-38
0.91123807 0.39638859 2.3920002 1.1891422e-38
0.92262858 0.39866665 2.392 1.2168355e-38
0.97502476 0.39866665 2.392 1.2443519e-38
0.99097145 0.39866668 2.392 1.2812296e-38
1.0152711 0.39714795 2.392 1.2443868e-38
1.0228647 0.39411047 2.392 1.244243e-38
1.2028342 0.39638856 2.392 1.1247484e-38
1.3964723 0.39866665 2.392 1.0877987e-38
1.4055847 0.39866665 2.392 1.0786508e-38
0.94996572 0.40322286 2.392 1.2350236e-38
0.96363425 0.40322286 2.392 1.2258759e-38
1.0752609 0.40322286 2.392 1.1247487e-38
1.0889295 0.40322286 2.392 1.1245693e-38
1.1025981 0.40322286 2.392 1.1336447e-38
1.1914438 0.40777904 2.392 1.1244251e-38
1.3349638 0.40777904 2.392 1.0418807e-38
1.3509105 0.40322289 2.392 1.0694678e-38
1.3691351 0.40550095 2.392 1.0601766e-38
1.3828038 0.40322286 2.392 1.078579e-38
1.4169753 0.40550095 2.392 1.0877272e-38
-0.62634003 0.37855715 2.4089999 1.5762572e-38
-0.61073887 0.37763941 2.4090002 1.6221397e-38
-0.5896315 0.37855712 2.4090002 1.6499411e-38
-0.57586569 0.37855712 2.4089999 1.6315736e-38
-0.64010566 0.38543999 2.4089999 1.6129192e-38
-0.629399 0.38671458 2.4090002 1.5394509e-38
0.49556571 0.39232284 2.4089999 1.1336087e-38
0.50856662 0.39385241 2.4089999 1.1337159e-38
0.54833424 0.39691141 2.4089999 1.1059497e-38
0.65387142 0.39232284 2.4089999 1.1797422e-38
0.67681426 0.39691141 2.4089999 1.115098e-38
0.68140286 0.39691141 2.4089999 1.1333935e-38
0.74564284 0.39232284 2.4089999 1.1707025e-38
0.83282566 0.39691141 2.4089999 1.2169079e-38
0.85117996 0.39232287 2.4089999 1.1982893e-38
0.86769885 0.38773426 2.4090002 1.1981815e-38
0.92918569 0.39691141 2.4089999 1.1893568e-38
1.0071914 0.39691141 2.4089999 1.1893933e-38
1.0209571 0.39691141 2.4089999 1.216836e-38
1.3559228 0.39232284 2.4089999 1.0324815e-38
1.3628056 0.39691141 2.4089999 1.0417006e-38
0.93377423 0.40149999 2.4089999 1.2259829e-38
0.97507137 0.40149999 2.4089999 1.2351314e-38
1.0370171 0.40149999 2.4089999 1.2535343e-38
1.0439 0.40149999 2.4089999 1.2534267e-38
1.0943742 0.40149999 2.4089999 1.1247126e-38
1.10814 0.40149999 2.4089999 1.1337166e-38
1.18844 0.41067713 2.4089999 1.1242454e-38
1.2045 0.40379429 2.4089999 1.1246405e-38
1.3501871 0.40379429 2.4089999 1.0417013e-38
1.3696885 0.40425315 2.4090002 1.0417729e-38
1.3895724 0.40302953 2.4089999 1.0418449e-38
1.4109857 0.40149999 2.4089999 1.0969462e-38
1.4247514 0.40379429 2.4089999 1.0694671e-38
-0.62844956 0.37660763 2.4260001 1.6039514e-38
-0.60996574 0.3754524 2.4260001 1.659089e-38
-0.59225214 0.37660763 2.4260001 1.6591246e-38
-0.64231241 0.3812286 2.4260001 1.5948033e-38
0.51523626 0.39355111 2.4260001 1.1429713e-38
0.52909911 0.39971241 2.4260001 1.105951e-38
0.54527241 0.39971241 2.4260001 1.1151336e-38
0.6538648 0.39509144 2.4260001 1.1797064e-38
0.66772765 0.39355111 2.4260001 1.1704865e-38
0.83870292 0.39971241 2.4260001 1.2169079e-38
0.84332383 0.39509144 2.4260001 1.1800659e-38
0.8641181 0.3904705 2.4260001 1.2259114e-38
0.92188007 0.39509144 2.4260001 1.1615559e-38
0.94036388 0.39971241 2.4260001 1.1984684e-38
1.023541 0.39971241 2.4260001 1.1893931e-38
1.4255639 0.39971241 2.4260001 1.0512072e-38
0.94960576 0.40895429 2.4260001 1.2351308e-38
0.97040009 0.40433335 2.4260001 1.2258038e-38
1.1991372 0.40895429 2.4260001 1.1244249e-38
1.2068388 0.40741396 2.4260001 1.1154208e-38
1.3516287 0.40741396 2.4260001 1.0325538e-38
1.3793544 0.40433335 2.4260001 1.0418084e-38
1.3909068 0.40433335 2.4260001 1.0234417e-38
1.4070801 0.40433335 2.4260001 1.0785791e-38
1.4371163 0.40433335 2.4260001 1.0603906e-38
-0.63145733 0.37273201 2.4430001 1.6223904e-38
-0.60858959 0.37259907 2.4430001 1.6683085e-38
-0.59330004 0.37924668 2.4430001 1.6592324e-38
1.4309 0.37692004 2.4430001 8.2082529e-39
1.4402068 0.37924668 2.4430001 8.3015261e-39
-0.65379333 0.38390002 2.4430001 1.6315373e-38
0.50837672 0.39320669 2.4430001 1.1612308e-38
0.53280675 0.39786002 2.4430003 1.1336814e-38
0.67473334 0.39786002 2.4430001 1.1704865e-38
0.68869334 0.39786002 2.4430001 1.1517606e-38
0.83992672 0.39786002 2.4430001 1.2076886e-38
0.84458005 0.39786002 2.4430001 1.1892855e-38
0.87017334 0.39320669 2.4430001 1.1982891e-38
1.4327615 0.38762268 2.4430001 9.128061e-39
1.4448601 0.39786002 2.4430001 1.005217e-38
0.54211336 0.40251336 2.4430001 1.1151341e-38
0.63750666 0.40251336 2.4430001 1.244135e-38
0.64914 0.40251336 2.4430003 1.1982171e-38
0.69567335 0.40251336 2.4430001 1.151832e-38
0.95393336 0.40716669 2.4430001 1.2351304e-38
0.96789336 0.40600336 2.4430001 1.2259114e-38
0.99193561 0.40406448 2.4430003 1.2442793e-38
1.0027933 0.40251336 2.4430001 1.2627545e-38
1.1005133 0.40716669 2.4430001 1.1246405e-38
1.1563534 0.41182002 2.4430001 1.069432e-38
1.1644967 0.40833002 2.4430001 1.0601046e-38
1.1959066 0.41182002 2.4430001 1.106022e-38
1.20754 0.40716669 2.4430001 1.1061295e-38
1.2715235 0.40833002 2.4430001 1.1798497e-38
1.3657534 0.40716669 2.4430001 1.0048955e-38
1.3936734 0.40716669 2.4430001 1.0234055e-38
1.4053068 0.40251336 2.4430001 1.0510645e-38
1.4285734 0.40251336 2.4430001 1.0694309e-38
1.4448602 0.40251336 2.4430003 1.023692e-38
-0.64803427 0.37532571 2.46 1.6315738e-38
-0.63011998 0.37524003 2.4780002 1.6591249e-38
-0.60211432 0.37485713 2.46 1.677564e-38
-0.59061825 0.378856 2.4707999 1.6591602e-38
-0.57348001 0.37996 2.4780002 1.7594957e-38
-0.66315997 0.38468 2.4779999 1.613206e-38
-0.65131426 0.38188571 2.46 1.6131704e-38
-0.58571434 0.38188571 2.46 1.6315736e-38
-0.5732612 0.38429311 2.4625714 1.6588724e-38
0.35163999 0.39411998 2.4779999 1.1427561e-38
0.51353288 0.39340428 2.4735 1.1520471e-38
0.53244114 0.39521369 2.4672 1.1429357e-38
0.54279995 0.39647996 2.4779999 1.1612314e-38
0.63955998 0.38939998 2.4779999 1.1797791e-38
0.64899427 0.39542857 2.4744 1.1797425e-38
0.68785566 0.39811569 2.4734998 1.1889614e-38
0.70091999 0.39883998 2.4779999 1.1702719e-38
0.86451429 0.39594287 2.46 1.1798864e-38
1.17528 0.39883998 2.4779999 1.1244249e-38
1.1918 0.39726663 2.4780002 1.1153857e-38
1.4441234 0.39522058 2.4672 9.4961289e-39
0.55291432 0.40062857 2.46 1.1243177e-38
0.5646286 0.40062857 2.46 1.1427205e-38
0.65249288 0.40136141 2.4645 1.1889617e-38
0.70863998 0.40571809 2.4720001 1.1517601e-38
0.72451997 0.40355998 2.4779999 1.1517963e-38
0.84108573 0.40062857 2.46 1.2261631e-38
0.95588577 0.40297145 2.46 1.2076162e-38
0.97201216 0.40480784 2.4712501 1.2258754e-38
0.99065256 0.40520573 2.4707999 1.2259117e-38
1.0144571 0.4053143 2.46 1.2812293e-38
1.0566286 0.4053143 2.46 1.244243e-38
1.0683429 0.4053143 2.46 1.225768e-38
1.0941143 0.41000003 2.46 1.1431513e-38
1.1123451 0.40743771 2.4672 1.1337883e-38
1.1245714 0.4053143 2.46 1.1337886e-38
1.1560898 0.41286531 2.465143 1.0785791e-38
1.1692373 0.40620282 2.4689999 1.0601402e-38
1.1898056 0.40502712 2.4690001 1.1060942e-38
1.2129074 0.40744457 2.4672 1.1061658e-38
1.2279429 0.40555659 2.4672 1.0971256e-38
1.2756858 0.40765715 2.46 1.124712e-38
1.4102057 0.40729141 2.4719999 1.0234413e-38
1.4268 0.4053143 2.46 1.0694672e-38
1.4474839 0.4016057 2.4660001 1.0051096e-38
-0.63469714 0.37321144 2.4960001 1.6591967e-38
-0.60379434 0.37796572 2.4960001 1.6684168e-38
0.39698288 0.39698288 2.4960001 1.1892495e-38
0.53010285 0.39698288 2.4960001 1.1521545e-38
0.54912001 0.39698288 2.4960001 1.1702713e-38
0.66797715 0.39698288 2.4960001 1.1707742e-38
0.69650286 0.39698288 2.4960001 1.1799573e-38
0.70125717 0.39698288 2.4960001 1.1708101e-38
0.88667428 0.39698288 2.4960001 1.1798857e-38
1.1957029 0.39698288 2.4960001 1.1247128e-38
1.2052114 0.39698288 2.4960001 1.1246412e-38
0.55625141 0.40173715 2.4960001 1.1334656e-38
0.64895999 0.40173715 2.4960001 1.1796352e-38
0.71314287 0.40411431 2.4960001 1.1610517e-38
0.72502863 0.40490669 2.4960001 1.151868e-38
0.83437717 0.40649146 2.4960001 1.2627532e-38
0.85022485 0.40490669 2.4960001 1.2168356e-38
0.86765718 0.40173715 2.4960001 1.1524075e-38
0.97700572 0.40173715 2.4960001 1.2533547e-38
0.98413718 0.40173715 2.4960001 1.2441351e-38
1.0118706 0.40649146 2.4960001 1.2441714e-38
1.0332649 0.40807623 2.4960003 1.2352031e-38
1.0530744 0.40807623 2.4960001 1.1802093e-38
1.0705068 0.40649146 2.4960001 1.2258038e-38
1.0879391 0.40807623 2.4960001 1.2074007e-38
1.1077485 0.41124573 2.4960001 1.133896e-38
1.129143 0.40649146 2.4960001 1.1337166e-38
1.1529143 0.41124576 2.4960001 1.1153498e-38
1.1709807 0.4074423 2.4960001 1.0785433e-38
1.1957029 0.40411431 2.4960001 1.0969824e-38
1.2115505 0.40411434 2.4960003 1.1154217e-38
1.23136 0.40886858 2.4960001 1.1062376e-38
1.248 0.40649143 2.4960001 1.1247477e-38
-0.6320914 0.37590286 2.5139999 1.6591609e-38
-0.67598665 0.3870762 2.5139999 1.5855836e-38
-0.60096568 0.38069141 2.5139999 1.6500142e-38
-0.58420575 0.38069141 2.5139999 1.7320881e-38
-0.57702285 0.38069141 2.5139999 1.7958706e-38
0.36153713 0.39984572 2.5139999 1.1426846e-38
0.38787425 0.39745143 2.5139999 1.1614476e-38
0.44294286 0.39984572 2.5139999 1.170594e-38
0.53073335 0.39505714 2.5139999 1.1429357e-38
0.5498876 0.39665335 2.5139999 1.1428283e-38
0.57063812 0.39984572 2.5139999 1.161304e-38
0.58420575 0.39984572 2.5139999 1.2073658e-38
0.66960192 0.39824957 2.5139999 1.1798859e-38
0.68955421 0.39984572 2.5139999 1.1707022e-38
0.70870852 0.39745146 2.5139999 1.1615186e-38
0.73025715 0.39984572 2.5139999 1.1798855e-38
0.74462283 0.39984572 2.5139999 1.170917e-38
0.85476005 0.39984572 2.5139999 1.1891412e-38
0.86673141 0.39984572 2.5139999 1.152443e-38
0.88827997 0.39984572 2.5139999 1.1705949e-38
0.9912343 0.39745146 2.5139999 1.2166922e-38
1.2378457 0.39745143 2.5139999 1.1888891e-38
0.47167426 0.40463427 2.5139999 1.152119e-38
0.57223433 0.4046343 2.5139999 1.1426493e-38
0.58420575 0.40463427 2.5139999 1.1795993e-38
0.64885139 0.40463427 2.5139999 1.1797431e-38
0.67279428 0.4046343 2.5139999 1.161447e-38
0.68237144 0.40463427 2.5139999 1.1797064e-38
0.72905999 0.40463427 2.5139999 1.170307e-38
0.85476005 0.4046343 2.5139999 1.2075802e-38
0.99841714 0.40463427 2.5139999 1.244243e-38
1.0103885 0.40583143 2.5139999 1.244279e-38
1.0295428 0.40702856 2.5139999 1.2075087e-38
1.0534856 0.40942284 2.5139999 1.1708464e-38
1.0714428 0.40583143 2.5139999 1.189105e-38
1.0909961 0.40623045 2.5139999 1.2164763e-38
1.1109486 0.40942284 2.5139999 1.1337882e-38
1.1301029 0.40702856 2.5139999 1.1245685e-38
1.1484591 0.40782666 2.5139999 1.1336091e-38
1.1755942 0.40942284 2.5139999 1.0877989e-38
1.1803828 0.40463427 2.5139999 1.1061297e-38
1.2354515 0.40702856 2.5139999 1.1338601e-38
1.2474229 0.40702856 2.5139999 1.1155286e-38
1.266577 0.40942284 2.5139999 1.1338958e-38
1.4389657 0.40942284 2.5139999 1.0050745e-38
1.4461485 0.40942284 2.5139999 1.0142944e-38
-0.64867431 0.37859431 2.5320001 1.6592324e-38
-0.62456 0.37859431 2.5320001 1.6868193e-38
-0.58477139 0.37738857 2.5320001 1.7592795e-38
0.85605717 0.37859431 2.5320001 1.0050733e-38
0.86088002 0.37859431 2.5320001 1.0050733e-38
-0.60044575 0.38341716 2.5320001 1.6316447e-38
-0.5956229 0.38341716 2.5320001 1.6681612e-38
0.30625144 0.39788571 2.5320001 1.0414142e-38
0.39788571 0.39788571 2.5320001 1.1615911e-38
0.51684958 0.39467049 2.5320001 1.1243898e-38
0.5305143 0.39788571 2.5320001 1.1336806e-38
0.55704004 0.39788571 2.5320001 1.1703433e-38
0.56829333 0.39788574 2.5320001 1.1612318e-38
0.58356571 0.39788571 2.5320001 1.207509e-38
0.65671241 0.39467049 2.5320001 1.1705595e-38
0.66917145 0.39668 2.5320001 1.1797784e-38
0.6896686 0.39788571 2.5320001 1.152371e-38
0.70896 0.39547428 2.5320001 1.1615182e-38
0.72825146 0.39788571 2.5320001 1.1982165e-38
0.74030858 0.39788571 2.5320001 1.1981804e-38
0.85485148 0.39426857 2.5320001 1.1340395e-38
0.86666745 0.39354515 2.5319998 1.1156003e-38
0.88017148 0.39788571 2.5320001 1.1432592e-38
0.30142859 0.40270859 2.5320001 1.0691441e-38
0.36894858 0.40270859 2.5320001 1.1334653e-38
0.39788571 0.40270859 2.5320001 1.1799942e-38
0.46781716 0.40270859 2.5320001 1.1244607e-38
0.57150859 0.40270859 2.5320001 1.1520125e-38
0.83435428 0.40512002 2.5320001 1.2353102e-38
0.84641159 0.40511999 2.5320001 1.2536773e-38
0.88499439 0.40270862 2.5320001 1.1524073e-38
0.90669715 0.40270859 2.5320001 1.1797424e-38
1.0115943 0.40391427 2.5320001 1.2351315e-38
1.0308857 0.4063257 2.5320001 1.2167283e-38
1.0537944 0.40753144 2.5320001 1.1432593e-38
1.0711566 0.40463772 2.5320001 1.1340392e-38
1.0863485 0.40391433 2.5320001 1.188925e-38
1.1092572 0.40753144 2.5320001 1.1613746e-38
1.1285485 0.40753144 2.5320001 1.0970176e-38
1.1502514 0.40753144 2.5320001 1.1061295e-38
1.1719544 0.40994287 2.5320001 1.1153138e-38
1.1920495 0.40431619 2.5320001 1.1061295e-38
1.2708229 0.40994287 2.5320001 1.1338597e-38
1.4396229 0.41235429 2.5320001 1.0050379e-38
1.4444457 0.41235429 2.5320001 9.9585475e-39
1.4673543 0.41235429 2.5320001 1.0235492e-38
-0.65597147 0.37657622 2.5510001 1.6040949e-38
-0.60981047 0.37657622 2.5510001 1.6681996e-38
-0.59280384 0.37657622 2.5510001 1.7499882e-38
-0.68852711 0.38337889 2.5510004 1.5393788e-38
-0.67176336 0.38265002 2.5510001 1.6222108e-38
-0.65840101 0.38143525 2.5510001 1.6591964e-38
-0.62438762 0.38143525 2.5510001 1.6960389e-38
-0.61102527 0.38143525 2.5510001 1.6591602e-38
0.55636096 0.3960124 2.5510001 1.1521554e-38
0.56850863 0.3960124 2.5510001 1.1612677e-38
0.58454347 0.39406881 2.5510004 1.2350951e-38
0.68877006 0.39479762 2.5510001 1.1521556e-38
0.71104068 0.39115334 2.5510004 1.1613747e-38
0.72750741 0.39169323 2.5510004 1.1522985e-38
0.74343431 0.3960124 2.5510001 1.179526e-38
0.85762197 0.39358288 2.5510001 1.0788661e-38
0.88774806 0.39163926 2.5510004 1.096982e-38
1.0835676 0.3960124 2.5510001 1.0417358e-38
0.30369049 0.40087146 2.5510001 1.0597097e-38
0.40816003 0.40087146 2.5510001 1.1708105e-38
0.45432097 0.40087146 2.5510001 1.1338955e-38
0.46889812 0.40330097 2.5510001 1.1061295e-38
0.49805242 0.40087146 2.5510001 1.096587e-38
0.5174886 0.40087146 2.5510001 1.114991e-38
0.57579714 0.40087146 2.5510001 1.1706307e-38
0.59523338 0.40087146 2.5510001 1.2533911e-38
0.60009241 0.40573049 2.5510001 1.2533192e-38
0.84790391 0.40087146 2.5510001 1.2261265e-38
0.89406478 0.40087146 2.5510001 1.1525146e-38
0.9037829 0.40087146 2.5510001 1.1523711e-38
1.0349772 0.40573049 2.5510001 1.2259478e-38
1.051012 0.40475869 2.5510004 1.161662e-38
1.0679493 0.40295392 2.5510004 1.1064882e-38
1.0859971 0.40087146 2.5510001 1.1245318e-38
1.1054333 0.40573049 2.5510001 1.243883e-38
1.1248696 0.40573049 2.5510001 1.0785783e-38
1.1443058 0.40573049 2.5510001 1.0786139e-38
1.1928964 0.40735018 2.5510001 1.1061295e-38
1.2487752 0.40573049 2.5510004 1.1797776e-38
1.2682115 0.41058955 2.5510001 1.1339674e-38
1.2835984 0.40896988 2.5510001 1.1429353e-38
1.474721 0.41058955 2.5510001 9.7734388e-39
1.4844391 0.41058955 2.5510001 9.5904825e-39
-0.67064762 0.37938094 2.5699999 1.5851539e-38
-0.60456187 0.3744857 2.5699999 1.7046083e-38
-0.69267619 0.38427618 2.5699999 1.530267e-38
-0.67799044 0.38427618 2.5699999 1.6681287e-38
-0.60945714 0.38427618 2.5699999 1.6040579e-38
0.3989619 0.3989619 2.5699999 1.1800658e-38
0.41364762 0.3989619 2.5699999 1.1891776e-38
0.43567616 0.3989619 2.5699999 1.1980735e-38
0.44791427 0.3989619 2.5699999 1.1704505e-38
0.50176191 0.3989619 2.5699999 1.0967665e-38
0.55316186 0.3989619 2.5699999 1.1430079e-38
0.59477139 0.39406666 2.5699999 1.2719373e-38
0.67799044 0.3989619 2.5699999 1.1796348e-38
0.68778098 0.3989619 2.5699999 1.1612675e-38
0.71225715 0.38917145 2.5700002 1.1521557e-38
0.85911429 0.3989619 2.5699999 1.1340037e-38
0.90806663 0.3989619 2.5699999 1.1338246e-38
1.0206571 0.3989619 2.5699999 1.1891413e-38
0.35490474 0.40630478 2.5699999 1.1519038e-38
0.37203807 0.40385714 2.5699999 1.1059506e-38
0.41854283 0.40385714 2.5699999 1.1891057e-38
0.43078092 0.40385714 2.5699999 1.1888899e-38
0.44546664 0.40385714 2.5699999 1.1795982e-38
0.47483808 0.40385714 2.5699999 1.0784355e-38
0.49057281 0.40595514 2.5700002 1.0967306e-38
0.61435241 0.40875238 2.5700002 1.2811569e-38
0.91785711 0.40385714 2.5699999 1.1430801e-38
1.0279999 0.40385714 2.5699999 1.2166924e-38
1.0500286 0.40385714 2.5699999 1.1799934e-38
1.1112189 0.40508094 2.5699999 1.1977496e-38
1.1234571 0.40875238 2.5699999 1.1245326e-38
1.1454856 0.40875238 2.5699999 1.0602111e-38
1.1773047 0.41364762 2.5699999 1.1246764e-38
1.4759142 0.41364762 2.5699999 9.7745164e-39
1.4922317 0.41038412 2.5700002 9.4053738e-39
1.4905243 0.29095426 2.589 7.0028826e-39
0.11342286 0.39451429 2.589 1.862244e-38
0.37232286 0.39697999 2.589 1.1613393e-38
0.3821857 0.39697999 2.589 1.1338246e-38
0.40930855 0.39697999 2.589 1.1892496e-38
0.4304041 0.39314446 2.589 1.2165134e-38
0.44834909 0.39081573 2.5890002 1.1797064e-38
0.55971712 0.39204857 2.589 1.1798144e-38
0.57204568 0.39697999 2.589 1.1521561e-38
0.59029198 0.39106232 2.589 1.2167285e-38
0.60409999 0.39697999 2.589 1.2903046e-38
0.66944146 0.39574713 2.589 1.1430087e-38
0.68546855 0.39697999 2.589 1.1611598e-38
0.71094763 0.39533621 2.5890002 1.152084e-38
0.31068 0.40191144 2.589 1.096731e-38
0.35259715 0.40684286 2.589 1.1610875e-38
0.37232289 0.40191144 2.5890002 1.1429e-38
0.38958287 0.40191144 2.589 1.1339323e-38
0.40930855 0.40191144 2.589 1.1800298e-38
0.4265686 0.40191144 2.5890002 1.2074011e-38
0.4512257 0.40191144 2.589 1.1795982e-38
0.46355426 0.40191144 2.589 1.1153131e-38
0.49067715 0.40191144 2.589 1.0967669e-38
0.50054002 0.40191144 2.589 1.0967666e-38
0.61149716 0.40561 2.589 1.2809416e-38
0.86053431 0.40191144 2.589 1.1340397e-38
0.91971141 0.40191144 2.589 1.1246771e-38
0.9345057 0.40684289 2.5890002 1.1431518e-38
1.0577915 0.40684286 2.589 1.1801013e-38
1.0775172 0.40191144 2.589 1.0879775e-38
1.0824486 0.40191144 2.589 1.0700405e-38
1.1342286 0.40684286 2.589 1.0601392e-38
1.1416258 0.40684286 2.589 1.0233688e-38
1.1810771 0.4167057 2.589 1.1244969e-38
1.2797058 0.40930855 2.589 1.1614462e-38
1.2871028 0.41177428 2.589 1.1247479e-38
1.4695656 0.4167057 2.589 9.7741535e-39
1.4892914 0.41177428 2.589 9.405371e-39
1.5049076 0.40519905 2.5890002 8.6688807e-39
1.4983114 0.28574762 2.609 4.6033019e-39
1.5049375 0.28740415 2.609 4.515767e-39
-0.61373621 0.37519905 2.609 1.7226514e-38
-0.62616003 0.38513809 2.609 1.6501204e-38
-0.61870569 0.38265333 2.609 1.6316801e-38
0.089451425 0.39507714 2.609 1.8345853e-38
0.31308001 0.39507714 2.609 1.1153495e-38
0.32053429 0.39507714 2.609 1.1153489e-38
0.38513809 0.39507714 2.609 1.1705232e-38
0.41309166 0.3919712 2.609 1.2259484e-38
0.42489427 0.39259237 2.609 1.2258768e-38
0.51086706 0.39110157 2.609 1.142972e-38
0.58888859 0.39507714 2.609 1.2074731e-38
0.60876667 0.39259237 2.6090002 1.2444586e-38
0.67088568 0.39507714 2.609 1.1522642e-38
0.91687715 0.39507714 2.609 1.0784357e-38
0.92184663 0.39507714 2.609 1.0784715e-38
0.089451425 0.40004668 2.609 1.8436972e-38
0.10684476 0.40004668 2.609 1.8714995e-38
0.29071715 0.40501618 2.609 1.1061302e-38
0.30811048 0.40253145 2.609 1.1245688e-38
0.32550383 0.40004668 2.609 1.1519398e-38
0.35035142 0.40203449 2.609 1.1702351e-38
0.3642661 0.40203449 2.609 1.1795622e-38
0.3884511 0.40004668 2.609 1.1615189e-38
0.40004668 0.40004668 2.609 1.189429e-38
0.45968094 0.40004668 2.609 1.1428643e-38
0.47458953 0.40253145 2.609 1.1059863e-38
0.49198285 0.40501618 2.609 1.078328e-38
0.50937617 0.40004668 2.609 1.0968383e-38
0.61539268 0.40335971 2.609 1.2993808e-38
0.6321944 0.40714601 2.6090002 1.2627898e-38
0.65017933 0.40998572 2.609 1.2076883e-38
0.70567238 0.40004668 2.609 1.142685e-38
0.86221236 0.40501618 2.609 1.133968e-38
0.91687715 0.40004668 2.609 1.1058431e-38
0.9284727 0.40170321 2.609 1.0969825e-38
1.0485696 0.40501618 2.609 1.1707385e-38
1.0684476 0.40501618 2.609 1.1431513e-38
1.0883257 0.40501618 2.609 1.0786499e-38
1.1082038 0.40501618 2.609 1.0418075e-38
1.1272538 0.40667272 2.609 1.0965867e-38
1.1728077 0.40998572 2.609 1.0324801e-38
1.2150486 0.41495523 2.609 1.0968739e-38
1.2249876 0.40998572 2.609 1.115205e-38
1.4983114 0.41247046 2.609 9.037666e-39
1.5032809 0.41247046 2.609 9.1291428e-39
-0.62595236 0.37807524 2.6289999 1.6589087e-38
-0.62845618 0.38308284 2.6289999 1.650049e-38
0.35804474 0.39810571 2.6289999 1.169912e-38
0.37682334 0.39434999 2.6289999 1.1427575e-38
0.38859123 0.39209655 2.6289999 1.2072224e-38
0.4099988 0.3887164 2.6289999 1.2812309e-38
0.46904695 0.39309809 2.6289999 1.1705946e-38
0.49825808 0.39810571 2.6289999 1.1243537e-38
0.50326568 0.39810571 2.6289999 1.1243894e-38
0.57587618 0.39810571 2.6289999 1.1797788e-38
0.58589143 0.39810571 2.6289999 1.1797791e-38
0.66851711 0.39810571 2.6289999 1.1707746e-38
0.69355524 0.39810571 2.6290002 1.1519761e-38
0.10265619 0.40311334 2.6289999 1.8716072e-38
0.29294571 0.40311334 2.6289999 1.1337528e-38
0.30796856 0.40311334 2.6289999 1.1705584e-38
0.33801427 0.40561712 2.6289999 1.1334651e-38
0.47488922 0.40478253 2.6290002 1.1152416e-38
0.48824286 0.40478253 2.6290002 1.078364e-38
0.50326568 0.40311334 2.6289999 1.0968028e-38
0.6301254 0.40311334 2.6290002 1.2718298e-38
0.6534943 0.40511638 2.6289999 1.1707386e-38
0.66517872 0.40478253 2.6290002 1.1523715e-38
0.93892854 0.40561712 2.6289999 1.0971979e-38
0.94393617 0.40311334 2.6289999 1.078974e-38
1.0591114 0.40311334 2.6289999 1.1156005e-38
1.0707959 0.40311334 2.6290002 1.1063449e-38
1.0941647 0.40311334 2.6289999 1.0599235e-38
1.1692791 0.41312855 2.6290002 1.0325162e-38
1.20934 0.41813621 2.6290002 1.0602115e-38
1.2268667 0.41312855 2.6289999 1.0967658e-38
1.4997818 0.41813618 2.6289999 9.2227762e-39
1.5047895 0.41813618 2.6289999 9.3142529e-39
1.5666943 0.017659999 2.6489999 1.2545822e-38
1.53642 0.29012856 2.6489999 2.6707726e-39
-0.63828284 0.38599715 2.6489999 1.6591968e-38
0.37590569 0.39608857 2.6489999 1.1331435e-38
0.40113428 0.39356571 2.6489999 1.2625406e-38
0.29139 0.40365714 2.6489999 1.1428647e-38
0.30526569 0.40617999 2.6489999 1.1522273e-38
0.36833712 0.40113428 2.6489999 1.1698403e-38
0.49094796 0.40214345 2.6489999 1.1059507e-38
0.50204855 0.40617999 2.6489999 1.096767e-38
0.63828284 0.40617999 2.6489999 1.2717581e-38
0.65173811 0.40365714 2.6490002 1.2074368e-38
0.66603422 0.40113428 2.6489999 1.1706309e-38
0.87038571 0.41122571 2.6489999 1.1708098e-38
0.88300002 0.40617999 2.6489999 1.0236212e-38
0.95616281 0.40870285 2.6489999 1.0788667e-38
0.96457237 0.40954381 2.6489999 1.1156725e-38
1.0621228 0.40617999 2.6489999 1.1339676e-38
1.0923971 0.40617999 2.6489999 1.1060572e-38
1.2134943 0.41627142 2.6489999 9.9574699e-39
1.2387228 0.41122571 2.6489999 1.0968012e-38
1.2437686 0.41122571 2.6489999 1.0968734e-38
1.5338972 0.41122571 2.6489999 8.4830531e-39
1.1983571 0.42131713 2.6489999 1.097017e-38
1.2084485 0.42131713 2.6489999 1.0599962e-38
1.2286314 0.42131713 2.6489999 1.0968381e-38
1.2589056 0.42131713 2.6489999 1.1060222e-38
1.2639514 0.42131713 2.6489999 1.1153854e-38
1.3270228 0.42131713 2.6489999 1.1246757e-38
1.5061457 0.42131713 2.6489999 9.3149704e-39
1.573439 0.017793333 2.6689999 1.2268141e-38
1.5785228 0.022877142 2.6689999 1.2267096e-38
1.5836066 0.022877142 2.6689999 1.1994822e-38
1.5683552 0.2669 2.6689999 6.9096164e-39
1.5505619 0.28977713 2.6689999 1.287506e-39
1.5683553 0.28723523 2.6690001 1.0130813e-39
-0.65326953 0.38891143 2.6690001 1.6498698e-38
0.088966668 0.39907902 2.6690001 1.8253298e-38
0.36857617 0.39907902 2.6690001 1.1425055e-38
0.50711 0.39780807 2.6689999 1.1520121e-38
0.59141648 0.39738446 2.6690001 1.2074375e-38
0.60243142 0.39653713 2.6689999 1.2258762e-38
0.63293427 0.39907902 2.6689999 1.2261632e-38
0.65581143 0.39907902 2.6689999 1.2166562e-38
0.67106283 0.39907902 2.6689999 1.1890338e-38
0.68377239 0.39907902 2.6689999 1.1707029e-38
0.099134281 0.40416285 2.6689999 1.8529527e-38
0.10676 0.40416285 2.6689999 1.8530247e-38
0.28723523 0.40416285 2.6689999 1.1612321e-38
0.30757046 0.40416285 2.6690001 1.1337886e-38
0.35332477 0.40416285 2.6689999 1.1519039e-38
0.63547617 0.40416285 2.6689999 1.2535346e-38
0.64310187 0.40416285 2.6689999 1.2534626e-38
0.87187332 0.41178855 2.6689999 1.1799218e-38
0.88204092 0.40924665 2.6689999 1.0419886e-38
0.95321429 0.40416285 2.6690001 1.0509923e-38
0.96846569 0.40924665 2.6689999 1.0881217e-38
0.98371708 0.40924665 2.6689999 1.1429715e-38
1.0574323 0.40924665 2.6689999 1.1615184e-38
1.0650581 0.40924665 2.6689999 1.1523348e-38
1.0904771 0.40924665 2.6689999 1.1156005e-38
1.1057285 0.40924665 2.6689999 1.069215e-38
1.2124885 0.41814333 2.6689999 1.0141494e-38
1.2353656 0.41941428 2.6689999 1.0416645e-38
1.253159 0.4160251 2.6690001 1.0968018e-38
1.2720418 0.41723552 2.6690001 1.1061658e-38
1.2874746 0.41814333 2.6689999 1.1154571e-38
1.3700867 0.41433045 2.6689999 9.6833998e-39
1.4971819 0.41941428 2.6689999 9.1305945e-39
1.5175171 0.41941428 2.6689999 8.7632357e-39
1.528532 0.4160251 2.6690001 8.4855699e-39
1.4717629 0.42449808 2.6690001 9.9574769e-39
1.4895561 0.42449808 2.6689999 9.5912126e-39
1.5755714 0.017933333 2.6900001 1.2821297e-38
1.5806953 0.017933333 2.6900001 1.2543265e-38
1.5858191 0.023057144 2.6900001 1.2450035e-38
1.4536247 0.27719808 2.6900003 3.4036979e-39
1.4628477 0.27412382 2.6900001 3.5859424e-39
1.5499524 0.27924761 2.6900001 8.2691603e-40
1.5755714 0.26899999 2.6900001 7.2787506e-39
1.5858191 0.26899999 2.6900001 6.543338e-39
1.5371429 0.29205716 2.6900001 2.6751152e-39
1.5499525 0.2869333 2.6900003 5.5606886e-40
-0.64816195 0.38684762 2.6900001 1.6591609e-38
0.087104768 0.39709523 2.6900001 1.8161103e-38
0.12040953 0.39709523 2.6900001 1.8714637e-38
0.36976826 0.39367938 2.6900001 1.1797784e-38
0.67121905 0.39709523 2.6900001 1.1982531e-38
0.09991429 0.40221906 2.6900001 1.8345854e-38
0.11016192 0.40221906 2.6900001 1.843877e-38
0.12809524 0.40221906 2.6900001 1.8620643e-38
0.29291111 0.40392703 2.6900001 1.1520484e-38
0.3497 0.40606189 2.6900001 1.133573e-38
0.36122859 0.40221906 2.6900001 1.1429718e-38
0.49444765 0.40221906 2.6900001 1.1244254e-38
0.64816189 0.40221906 2.6900001 1.2351671e-38
0.73270476 0.40734285 2.6900001 1.1427928e-38
0.87360954 0.40990475 2.6900001 1.2165481e-38
0.89308006 0.4063181 2.6900003 1.0693592e-38
0.90435243 0.40221906 2.6900001 1.0326957e-38
0.97352386 0.40734285 2.6900001 1.0511357e-38
0.99145716 0.40734285 2.6900001 1.1244963e-38
1.0939333 0.40734285 2.6900001 1.0418084e-38
1.1707906 0.4175905 2.6900001 1.0413056e-38
1.1938477 0.4175905 2.6900001 9.8641841e-39
1.2083652 0.4175905 2.6900001 1.0046779e-38
1.2271523 0.41588256 2.6900001 9.7712808e-39
1.2476476 0.4175905 2.6900001 1.0505963e-38
1.2758286 0.41502857 2.6900001 1.0784718e-38
1.2911999 0.41502857 2.6900001 1.0877627e-38
1.3065715 0.4175905 2.6900001 1.1153128e-38
1.3719001 0.41630954 2.6900001 1.0232256e-38
1.3842826 0.41417462 2.6900001 9.4997302e-39
1.5320191 0.41502857 2.6900001 8.0253106e-39
1.5448287 0.41246668 2.6900001 8.0238686e-39
1.2297144 0.42527622 2.6900001 1.0325888e-38
1.3373144 0.42271429 2.6900001 1.12464e-38
1.3501239 0.42271432 2.6900001 1.1244959e-38
1.4218571 0.42783812 2.6900001 1.0231893e-38
1.478219 0.42271429 2.6900001 1.0324456e-38
1.4910287 0.42271429 2.6900001 9.7741591e-39
1.5115238 0.42527622 2.6900001 9.3149802e-39
1.5243334 0.42527622 2.6900001 9.0394653e-39
1.5413971 0.023237143 2.711 1.1241738e-38
1.5930352 0.023237143 2.711 1.2720505e-38
1.5749619 0.23495333 2.711 1.2985794e-38
1.5754783 0.24528097 2.7110002 9.3970402e-39
1.5917443 0.24915382 2.7110002 7.8279517e-39
1.4561942 0.27368188 2.711 4.3310212e-39
1.4673827 0.26937872 2.711 4.7062595e-39
1.4845952 0.27109998 2.711 4.6998107e-39
1.5716424 0.27257538 2.7110002 5.2558516e-39
1.5911576 0.26875278 2.7110004 5.9012168e-39
1.6059448 0.26851809 2.7110002 6.1785001e-39
1.4527519 0.28745204 2.7110002 1.9328754e-39
1.5530157 0.28530046 2.711 1.1989299e-39
1.5741013 0.28487015 2.7110002 9.4381655e-41
1.5870109 0.28487015 2.7110002 1.8585281e-40
1.6085266 0.28142762 2.711 9.8310896e-41
-0.66613144 0.38728571 2.711 1.6314664e-38
-0.65451288 0.38599479 2.711 1.6499412e-38
0.37954 0.3924495 2.711 1.216442e-38
0.38642511 0.39331016 2.711 1.2256978e-38
0.095530473 0.40019524 2.711 1.8252937e-38
0.10844 0.40019524 2.711 1.8346933e-38
0.12909523 0.40535903 2.711 1.8529525e-38
0.14200476 0.40535903 2.711 1.8711758e-38
0.29175523 0.40535903 2.711 1.1612681e-38
0.30724666 0.40535903 2.711 1.1336811e-38
0.35113904 0.40535903 2.711 1.124497e-38
0.37093365 0.40019524 2.711 1.1615188e-38
0.38470381 0.40019524 2.711 1.1795637e-38
0.51121712 0.40019524 2.711 1.1890334e-38
0.65838569 0.40019524 2.711 1.2443148e-38
0.67215586 0.40019524 2.711 1.2074727e-38
0.73067904 0.41052285 2.711 1.1150984e-38
0.87268376 0.41310477 2.711 1.2076874e-38
0.89075708 0.40535903 2.711 1.1703784e-38
0.90108472 0.40535903 2.711 1.0876537e-38
0.96821427 0.40535903 2.711 1.014187e-38
0.99145138 0.41052285 2.711 1.0786143e-38
1.0921457 0.41052285 2.711 1.0695383e-38
1.1799304 0.41568667 2.711 9.2170336e-39
1.1850942 0.41568667 2.711 9.3110173e-39
1.2315686 0.41568667 2.711 9.679081e-39
1.2780428 0.41568667 2.711 1.0970174e-38
1.2857885 0.41310477 2.711 1.0416657e-38
1.3839009 0.41310477 2.711 1.0140412e-38
1.546561 0.41568667 2.711 7.9334695e-39
1.5697981 0.41568667 2.711 8.022791e-39
1.2212409 0.42085049 2.711 1.0047135e-38
1.3709915 0.42085049 2.711 1.0783625e-38
1.4329572 0.42601427 2.711 9.6812432e-39
1.492341 0.42085049 2.711 1.0140781e-38
1.5336514 0.42343238 2.711 8.669608e-39
1.5539057 0.01822 2.733 1.2451463e-38
1.5695229 0.01822 2.7330003 1.171785e-38
1.5591115 0.023425715 2.733 1.1525506e-38
1.5695229 0.023425717 2.7330003 9.6852299e-39
1.6163743 0.031234287 2.733 1.3092135e-38
1.62158 0.031234287 2.733 1.318541e-38
1.6163743 0.19521429 2.733 1.326094e-38
1.62158 0.19521429 2.733 1.3444251e-38
1.5903457 0.21473572 2.733 1.289539e-38
1.6163743 0.20042001 2.733 1.3444611e-38
1.62158 0.20042001 2.733 1.3536445e-38
1.5773315 0.23686001 2.733 1.2986873e-38
1.5908663 0.22748971 2.733 1.2985791e-38
1.6075248 0.23061314 2.733 1.298687e-38
1.62158 0.23165429 2.733 1.2710644e-38
1.5330828 0.25768286 2.733 6.266035e-39
1.5799344 0.24987429 2.733 8.7524037e-39
1.5918332 0.25173348 2.7330003 8.0126975e-39
1.61247 0.24857286 2.733 9.946984e-39
1.62158 0.25507998 2.733 4.9767493e-39
1.1634772 0.27850571 2.733 6.4502049e-40
1.4527662 0.27181265 2.7330003 5.0689478e-39
1.4664497 0.26757374 2.733 6.9131939e-39
1.4862314 0.26549143 2.733 7.8344187e-39
1.5096571 0.27069715 2.733 6.2653259e-39
