# .PCD v0.7 - Point Cloud Data file format
VERSION 0.7
FIELDS x y z rgb
SIZE 4 4 4 4
TYPE F F F F
COUNT 1 1 1 1
WIDTH 1040
HEIGHT 1
VIEWPOINT 0 0 0 1 0 0 0
POINTS 1040
DATA ascii
0.5223518 0.37741798 1.8735089 1.2903399e-38
0.5493167 0.37556633 1.8773775 1.3272897e-38
0.5799827 0.38283497 1.8822025 1.3178894e-38
0.61354673 0.3784641 1.8795317 1.1520101e-38
0.64683282 0.37929323 1.8749764 1.151974e-38
0.66516715 0.37777045 1.8794279 1.1978928e-38
0.69680607 0.37540561 1.8786728 1.2165471e-38
0.72826606 0.37951422 1.8773708 1.2904476e-38
0.76448947 0.38324243 1.8736844 1.2811552e-38
0.79740226 0.38056564 1.8762606 1.1613377e-38
0.82098514 0.3827146 1.8731377 1.1705572e-38
0.85252714 0.38505012 1.8724774 1.142827e-38
0.88198662 0.38333893 1.8773859 1.1427554e-38
0.91953915 0.38504392 1.8707777 1.1336087e-38
0.93908691 0.38059169 1.8720212 1.1614105e-38
0.97223735 0.38415116 1.8795218 1.1983599e-38
1.001793 0.38379434 1.8724444 1.1982877e-38
1.0354489 0.38257524 1.8713335 1.1246394e-38
1.0560887 0.38418889 1.8763335 1.0967659e-38
1.0923001 0.38453659 1.8710002 1.1243534e-38
-0.90617657 0.39312887 1.8723354 1.3459102e-38
-0.88297325 0.39161158 1.8696076 1.5393788e-38
-0.86140263 0.3901273 1.8683004 1.6501559e-38
-0.79814988 0.39165309 1.8761457 1.6406126e-38
-0.39319047 0.39414117 1.8802674 1.5945878e-38
-0.37070706 0.39316738 1.8791922 1.6038794e-38
0.79301733 0.39345738 1.8680363 1.2256582e-38
0.92175645 0.39312831 1.8805025 1.2716852e-38
0.94360465 0.39441597 1.8716961 1.271865e-38
0.97202414 0.39739439 1.8740158 1.3087421e-38
1.0007476 0.39582238 1.8813807 1.2442051e-38
1.0259833 0.39645001 1.8704365 1.1797051e-38
1.0600665 0.39764768 1.8790121 1.1981437e-38
1.0946249 0.39558518 1.8717933 1.1981079e-38
1.1165731 0.39556155 1.8728558 1.2072919e-38
-1.094301 0.35079521 1.8953176 1.3088172e-38
-1.0634127 0.35171375 1.9045427 1.456438e-38
-1.0274764 0.35214305 1.9096007 1.4472903e-38
-0.99951738 0.35347915 1.9067454 1.4013006e-38
-0.97857845 0.35343099 1.896688 1.336692e-38
-0.94539559 0.35284182 1.9051502 1.2720835e-38
-0.9098627 0.35143369 1.9081135 1.2813026e-38
-0.87716466 0.3526459 1.9013985 1.2075102e-38
-0.85184044 0.35330203 1.9053109 1.2075821e-38
-0.8264184 0.35373604 1.9059149 1.2168017e-38
-0.79358411 0.35344246 1.9052709 1.2627916e-38
-0.76384062 0.3534908 1.9044827 1.308925e-38
-0.73408234 0.35370776 1.8971437 1.3736059e-38
-0.70594776 0.35399693 1.9044561 1.4011568e-38
-0.67365211 0.35469317 1.9021455 1.4010849e-38
-0.64619792 0.35572007 1.9027822 1.4011568e-38
-0.61326563 0.35661331 1.9097856 1.4471827e-38
-0.58359981 0.35647365 1.908022 1.4748773e-38
-0.55831695 0.35646862 1.8999423 1.5209751e-38
-0.52629793 0.35764509 1.9002498 1.5209751e-38
-0.49058434 0.35875598 1.9026957 1.5668935e-38
-0.40384743 0.3577165 1.914688 1.7769625e-38
0.086034268 0.35652447 1.9092462 1.8806828e-38
-1.1210108 0.38001552 1.9090009 1.4566175e-38
-1.0937264 0.38232708 1.9072416 1.4013722e-38
-1.0692031 0.38130689 1.9083568 1.3365482e-38
-1.037807 0.36560524 1.8990481 1.2259491e-38
-1.015714 0.38189936 1.9012356 1.3553095e-38
-0.9744643 0.36998847 1.9116557 1.253716e-38
-0.94464976 0.36400875 1.9125903 1.1152075e-38
-0.91704881 0.36294612 1.9012644 1.1427932e-38
-0.88917994 0.38865924 1.8944163 1.5947309e-38
-0.85569924 0.37683004 1.8994466 1.4102322e-38
-0.82317144 0.37034419 1.8999306 1.3087096e-38
-0.79324359 0.37708735 1.9064299 1.3641706e-38
-0.76178718 0.36580387 1.90307 1.3642783e-38
-0.72711223 0.36708969 1.9035773 1.3458033e-38
-0.70310122 0.37572917 1.9061537 1.419524e-38
-0.67775548 0.37229449 1.9049615 1.4286716e-38
-0.64459401 0.37222812 1.9018476 1.4471823e-38
-0.61382324 0.36868608 1.9040209 1.4472187e-38
-0.58189589 0.37481722 1.9023663 1.4933879e-38
-0.55594778 0.36819723 1.896584 1.5117914e-38
-0.52831471 0.36838451 1.9058207 1.4840611e-38
-0.49906015 0.37141162 1.9044709 1.4379274e-38
-0.46589017 0.36815229 1.9059391 1.4840254e-38
-0.43796834 0.36941287 1.9024193 1.5024642e-38
-0.40602911 0.36914766 1.9041512 1.58472e-38
-0.37766209 0.37027824 1.9066612 1.7126419e-38
-0.34829479 0.37116528 1.9062822 1.6943467e-38
-0.31612968 0.37191918 1.9057343 1.694779e-38
-0.28235427 0.36806688 1.9051629 1.5669653e-38
-0.25240588 0.36877975 1.90846 1.6223188e-38
-0.22503407 0.36867407 1.9078972 1.5670373e-38
-0.19143806 0.37099266 1.9003502 1.6039154e-38
-0.16640145 0.37095687 1.8984693 1.6315741e-38
-0.13434927 0.3700192 1.9029531 1.6776361e-38
-0.10668968 0.37070233 1.9036628 1.7238058e-38
-0.077997774 0.3714689 1.9089768 1.7791953e-38
-0.045356642 0.3716341 1.9039176 1.8252933e-38
-0.012755866 0.37036616 1.9036405 1.834477e-38
0.015202761 0.37356156 1.9051028 1.8622434e-38
0.048332565 0.3728776 1.9054503 1.8714991e-38
0.077635206 0.37542588 1.9034911 1.8622072e-38
0.10496262 0.37601092 1.9066589 1.8714268e-38
0.13988949 0.37486988 1.9066287 1.7792669e-38
0.1663788 0.37574801 1.9023497 1.6961827e-38
0.19707166 0.37875354 1.9081023 1.6223539e-38
0.22354534 0.37734082 1.9080616 1.4747681e-38
0.25499687 0.37836367 1.9064221 1.4378892e-38
0.28742638 0.37719816 1.9087435 1.4377095e-38
0.31994072 0.37751469 1.9072387 1.4469647e-38
0.34530458 0.37612602 1.9009647 1.4192337e-38
0.37631163 0.37658229 1.9074358 1.3915751e-38
0.4033657 0.37732527 1.9044917 1.3362578e-38
0.43884397 0.38005966 1.9036281 1.262501e-38
0.46171364 0.37865809 1.9027426 1.2716486e-38
0.49693859 0.37546706 1.9100145 1.3824628e-38
0.52711964 0.37949699 1.9066331 1.3087072e-38
0.55050951 0.37996414 1.9037509 1.3363295e-38
0.58745492 0.3774175 1.9050224 1.2625006e-38
0.61360294 0.37938109 1.9107389 1.1981437e-38
0.6457721 0.37754381 1.9091928 1.161014e-38
0.67163539 0.38190588 1.9017897 1.1978928e-38
0.6964106 0.37740585 1.9094496 1.2349146e-38
0.73759884 0.38039199 1.9032785 1.2811922e-38
0.76293051 0.37952608 1.9045968 1.262645e-38
0.79398096 0.37795052 1.9040003 1.2165112e-38
0.82686436 0.38124534 1.9041643 1.1429701e-38
0.84978187 0.38433307 1.9085511 1.1244237e-38
0.88791198 0.38436171 1.9017091 1.1243167e-38
0.91409123 0.38871628 1.9117332 1.1520115e-38
0.93714714 0.38775524 1.9070001 1.1429004e-38
0.97091496 0.38552392 1.9081295 1.189105e-38
1.0032135 0.38463628 1.9060557 1.1798852e-38
1.0346391 0.38664067 1.8981616 1.1430068e-38
1.0586829 0.38621008 1.9015093 1.1245321e-38
1.0929608 0.38808972 1.9075627 1.0691082e-38
1.1167947 0.38505921 1.9058572 1.1428643e-38
-0.91208851 0.39412338 1.9063475 1.5116115e-38
-0.86580801 0.39130777 1.8910489 1.6316803e-38
-0.82091117 0.39251262 1.8971076 1.6591235e-38
-0.78251916 0.39069608 1.910207 1.5670724e-38
-0.52155834 0.39081281 1.9056903 1.3548062e-38
-0.49582288 0.393944 1.8917919 1.3180363e-38
-0.41168708 0.39419317 1.9065517 1.5855842e-38
-0.21676832 0.39512557 1.9172442 1.6224622e-38
0.68202835 0.39053649 1.906786 1.1707004e-38
0.73708951 0.39101389 1.8997731 1.3454402e-38
0.79722744 0.39053199 1.8921432 1.1797047e-38
0.82415783 0.39107001 1.9090675 1.1704495e-38
0.84113526 0.39185062 1.8941048 1.1244237e-38
0.92820042 0.39335805 1.9112629 1.1520829e-38
0.94790286 0.39587459 1.907976 1.2994511e-38
0.98073697 0.39413661 1.9085335 1.2534255e-38
1.0050724 0.39657071 1.9088821 1.2165828e-38
1.0266576 0.4000628 1.9094493 1.1797047e-38
1.0738584 0.39524972 1.8969314 1.1520107e-38
1.0905824 0.39806136 1.9014351 1.1795616e-38
1.1181278 0.39432251 1.9026678 1.2073278e-38
-1.1129543 0.35042247 1.9323174 1.3365837e-38
-1.0949008 0.35381699 1.9324028 1.4379271e-38
-1.0675435 0.35380149 1.9374999 1.4380709e-38
-1.034711 0.35449815 1.939849 1.3367273e-38
-1.0039668 0.35466063 1.9252647 1.4013007e-38
-0.97491229 0.35647592 1.9360764 1.3182529e-38
-0.94739372 0.35282621 1.9390938 1.235349e-38
-0.91675937 0.35370502 1.9335619 1.2997059e-38
-0.88681948 0.35460538 1.9398943 1.2720116e-38
-0.8587184 0.35433874 1.9370974 1.2536083e-38
-0.83225846 0.35404092 1.9316068 1.2997059e-38
-0.79855919 0.35548711 1.9377041 1.2628275e-38
-0.76955318 0.35510749 1.9321071 1.3273283e-38
-0.73755819 0.35486731 1.9303035 1.3735337e-38
-0.70602512 0.35478804 1.9350417 1.4103045e-38
-0.67895156 0.35570991 1.9335623 1.3826818e-38
-0.64884073 0.35599294 1.9330187 1.437963e-38
-0.61924237 0.35678139 1.9345336 1.437999e-38
-0.59029269 0.35668549 1.9366696 1.4195958e-38
-0.5512979 0.35659856 1.9295253 1.5209391e-38
-0.5322656 0.3578172 1.9332167 1.5393781e-38
-0.50096828 0.35502225 1.9351977 1.5670368e-38
-0.47194099 0.35672808 1.9352474 1.5855839e-38
-0.44155106 0.35704532 1.9438857 1.3732469e-38
-0.40667218 0.35774508 1.9234298 1.7860024e-38
-0.35363957 0.35960487 1.926344 1.813337e-38
-0.32730275 0.35835689 1.9412949 1.6037715e-38
-0.17285161 0.35848045 1.9237353 1.594696e-38
-1.1275481 0.38095361 1.9353074 1.3921527e-38
-1.1033089 0.3877534 1.940563 1.4195602e-38
-1.0653162 0.37861079 1.936237 1.3089256e-38
-1.034862 0.37995115 1.9325731 1.3458743e-38
-0.9920429 0.36158571 1.947 1.2169815e-38
-0.97634453 0.37231481 1.9412696 1.2813744e-38
-0.90774083 0.37075496 1.9374628 1.1523015e-38
-0.88295281 0.37410617 1.9305738 1.3273281e-38
-0.84880942 0.37884766 1.9296168 1.3917214e-38
-0.83159059 0.37727284 1.9347446 1.4378548e-38
-0.79254341 0.38014847 1.9379978 1.4286714e-38
-0.76406324 0.37391704 1.9358554 1.4839884e-38
-0.73642272 0.36886251 1.9340274 1.4288511e-38
-0.70167404 0.36518398 1.9327837 1.4380355e-38
-0.67225027 0.36918342 1.9316512 1.4287077e-38
-0.64304227 0.37066767 1.9324166 1.4471826e-38
-0.61349785 0.37079874 1.9309008 1.4656218e-38
-0.58409005 0.36913013 1.93406 1.4749132e-38
-0.55726349 0.36500525 1.9317217 1.4933524e-38
-0.52386886 0.37187687 1.9353681 1.5025002e-38
-0.49312758 0.36893493 1.9359686 1.5208673e-38
-0.46426433 0.37205938 1.9368852 1.5025002e-38
-0.4342711 0.37092721 1.9347517 1.5300506e-38
-0.40423995 0.37250838 1.9354767 1.6123786e-38
-0.37416857 0.37186626 1.937097 1.7493402e-38
-0.34822094 0.37236956 1.9362345 1.7677795e-38
-0.31998077 0.37175491 1.9329829 1.6677324e-38
-0.28836182 0.36833844 1.9344888 1.5946599e-38
-0.25782236 0.36743724 1.9360373 1.6130991e-38
-0.22360116 0.36912915 1.939333 1.6039153e-38
-0.19680786 0.37068984 1.9323014 1.6407935e-38
-0.16442677 0.37021783 1.9303044 1.63161e-38
-0.13216245 0.37182227 1.9331176 1.6684884e-38
-0.10523222 0.37140518 1.9363204 1.7054028e-38
-0.074685104 0.36896887 1.9346191 1.7792313e-38
-0.044208825 0.37193295 1.930588 1.825293e-38
-0.014106961 0.37172285 1.9330583 1.8161097e-38
0.015361683 0.37239835 1.9364176 1.8529521e-38
0.049412839 0.37159494 1.9346294 1.8345486e-38
0.075599246 0.37491614 1.9322025 1.8622434e-38
0.10744912 0.37728986 1.9373857 1.8713908e-38
0.1399074 0.37629783 1.9296387 1.7884865e-38
0.16496104 0.37490356 1.9342902 1.6869988e-38
0.19508639 0.37658393 1.9344637 1.5762559e-38
0.22801763 0.37569138 1.9344155 1.4010115e-38
0.25589275 0.37495914 1.9358858 1.4009389e-38
0.28745362 0.37672147 1.9374102 1.3917914e-38
0.31608975 0.37709802 1.9358178 1.4378532e-38
0.34667742 0.37700087 1.9316609 1.4009382e-38
0.36814123 0.37828514 1.9288788 1.3916109e-38
0.40056083 0.37705255 1.9325769 1.363952e-38
0.43597943 0.38117617 1.9349329 1.2993792e-38
0.46836019 0.3792623 1.9339726 1.3178905e-38
0.49426931 0.37561896 1.9296907 1.3364368e-38
0.52277064 0.38019332 1.9330215 1.327182e-38
0.55374026 0.3796846 1.9356159 1.3364733e-38
0.5935756 0.38370433 1.9345261 1.253353e-38
0.61431134 0.38122255 1.9313543 1.1888162e-38
0.64593357 0.37673157 1.9297899 1.1426472e-38
0.67940468 0.38343686 1.936614 1.1888169e-38
0.70630246 0.38054693 1.9323877 1.2259823e-38
0.73411524 0.38124713 1.9376172 1.2810842e-38
0.76316851 0.38063389 1.9348586 1.2535698e-38
0.79749435 0.38311061 1.9351362 1.1980366e-38
0.83416671 0.3795 1.925 1.1241005e-38
0.85392511 0.37990165 1.939831 1.0873303e-38
0.87977868 0.38462681 1.9398161 1.1150251e-38
0.91467834 0.38537502 1.9396141 1.0968383e-38
0.93943465 0.38637704 1.9403796 1.1429362e-38
0.97362065 0.38466638 1.9339495 1.1890691e-38
1.0073904 0.38410506 1.9297144 1.1799931e-38
1.0329204 0.38339198 1.9367861 1.1613744e-38
1.0571471 0.38609475 1.9305 1.0972335e-38
1.0967078 0.38471454 1.9305 1.0876193e-38
1.1191804 0.38851401 1.9360001 1.115421e-38
-0.9358803 0.39265788 1.9378089 1.4932444e-38
-0.91891742 0.39423078 1.9380038 1.520795e-38
-0.84897399 0.39041156 1.9340866 1.6591592e-38
-0.81474918 0.3937594 1.9345809 1.6499757e-38
-0.7039662 0.39073053 1.9394132 1.4936044e-38
-0.57890069 0.39283818 1.9463153 1.5762556e-38
-0.55139869 0.39854047 1.9241583 1.6128814e-38
-0.50252932 0.39103767 1.9327401 1.3088519e-38
-0.42277041 0.39642981 1.9461864 1.5948036e-38
-0.2179243 0.39174914 1.9326129 1.5852962e-38
-0.0088812876 0.39114112 1.9453087 1.7699044e-38
0.49280775 0.39283121 1.9460047 1.1149522e-38
0.67225283 0.39035019 1.9320259 1.1243869e-38
0.70477009 0.39197633 1.9312013 1.1798489e-38
0.73931623 0.3906492 1.9271721 1.3639155e-38
0.77066487 0.39057755 1.9270575 1.2534964e-38
0.82744652 0.39009672 1.9362375 1.1611941e-38
0.84816307 0.39369243 1.93476 1.1337514e-38
0.88678515 0.39195263 1.9413934 1.1520467e-38
0.92806721 0.39212233 1.9355701 1.1428281e-38
0.94506145 0.39540184 1.9347421 1.1982167e-38
0.98298442 0.39509249 1.9412308 1.2533899e-38
1.0091116 0.39634362 1.9440804 1.1981085e-38
1.0367124 0.39775178 1.9411316 1.142827e-38
1.0670015 0.40055078 1.9424764 1.1888887e-38
1.0985092 0.39754781 1.9336118 1.1796335e-38
1.1196585 0.39204776 1.9288732 1.1520833e-38
-1.1556731 0.35671079 1.9634683 1.5116836e-38
-1.1264517 0.35281119 1.9652725 1.4104122e-38
-1.09851 0.35266274 1.952368 1.4378554e-38
-1.0670016 0.35493666 1.9722624 1.3366552e-38
-1.0341684 0.35667646 1.9618435 1.4013726e-38
-1.0058063 0.35564142 1.9622487 1.3827893e-38
-0.97334498 0.35351834 1.9613594 1.3920811e-38
-0.94238847 0.35372734 1.9665827 1.3367278e-38
-0.91133118 0.35419807 1.9630387 1.3643503e-38
-0.88825482 0.35274133 1.9672556 1.3919371e-38
-0.85375726 0.35489339 1.9709225 1.2630434e-38
-0.82527447 0.35431147 1.9619219 1.2905219e-38
-0.79361457 0.35547993 1.9642372 1.2813382e-38
-0.7694481 0.35716447 1.9633732 1.3549508e-38
-0.73919308 0.35541594 1.9628925 1.3643503e-38
-0.70943034 0.35417137 1.9642569 1.3919014e-38
-0.67924988 0.35519734 1.9596536 1.401085e-38
-0.64915514 0.35636473 1.9617494 1.4287792e-38
-0.62040442 0.35631034 1.97024 1.3827531e-38
-0.59143007 0.35817719 1.9723451 1.4287073e-38
-0.5566811 0.35672912 1.9600799 1.5025001e-38
-0.52660978 0.35712534 1.9729675 1.4933523e-38
-0.50441849 0.35713518 1.9651539 1.6130983e-38
-0.4747076 0.35630244 1.9530656 1.6130981e-38
-0.44490987 0.35720837 1.9591869 1.4284195e-38
-0.41427693 0.35907364 1.9621351 1.6929793e-38
-0.38750538 0.35963717 1.9704956 1.6930864e-38
-0.26155677 0.35848385 1.9502735 1.6683448e-38
-0.13937448 0.34796101 1.9774578 1.5669653e-38
-0.11072494 0.35975182 1.9694524 1.640758e-38
-1.1637816 0.3863714 1.9674631 1.3553474e-38
-1.1283636 0.3858459 1.9688175 1.3643507e-38
-1.0956092 0.38476211 1.9691458 1.3552033e-38
-1.0695703 0.37441903 1.9627035 1.2812304e-38
-1.0421906 0.37624162 1.9648567 1.2905935e-38
-1.0080941 0.37523937 1.965134 1.2907377e-38
-0.98676264 0.37842166 1.9697382 1.3459468e-38
-0.91184676 0.38941032 1.976954 1.5852241e-38
-0.89176786 0.36738902 1.966276 1.170668e-38
-0.85561764 0.38294473 1.9664131 1.438142e-38
-0.81465381 0.36964473 1.9605225 1.2168377e-38
-0.79862618 0.37045193 1.9694664 1.2719394e-38
-0.76793075 0.38084063 1.9592311 1.4471822e-38
-0.73719037 0.38405234 1.9648565 1.5025718e-38
-0.70776761 0.37491912 1.9637558 1.4471107e-38
-0.67212909 0.37482521 1.96877 1.5025357e-38
-0.6436072 0.37123963 1.9641776 1.4563661e-38
-0.61407888 0.37066808 1.9662964 1.4471823e-38
-0.58839273 0.37058774 1.9642245 1.4565099e-38
-0.55618149 0.37166151 1.9597607 1.5024998e-38
-0.52931678 0.3697027 1.9629768 1.502572e-38
-0.49294376 0.36988601 1.9691499 1.566965e-38
-0.46767578 0.3692708 1.9691576 1.5300873e-38
-0.43579254 0.36960369 1.9630264 1.548382e-38
-0.40647325 0.3714433 1.9658252 1.6759796e-38
-0.3734794 0.37294322 1.9682457 1.7401568e-38
-0.34387937 0.37367791 1.9621248 1.7316212e-38
-0.31713468 0.3671667 1.9631003 1.5854043e-38
-0.28676057 0.36847439 1.9666436 1.6315384e-38
-0.25679982 0.37009567 1.9673308 1.5947316e-38
-0.22296548 0.37391394 1.9629681 1.613099e-38
-0.19110912 0.37263578 1.962929 1.6316461e-38
-0.16288006 0.37056589 1.9601753 1.6039875e-38
-0.13821904 0.37593922 1.9657239 1.6684884e-38
-0.10767721 0.37168968 1.9662811 1.6961831e-38
-0.075378075 0.37175789 1.9677101 1.7976346e-38
-0.048708983 0.37311521 1.9609754 1.8252931e-38
-0.014942773 0.37416396 1.9647629 1.8161457e-38
0.012671052 0.37510946 1.9641474 1.8437685e-38
0.043357864 0.37586361 1.9700185 1.8161454e-38
0.072621718 0.37508413 1.9609096 1.8253293e-38
0.10268911 0.37213716 1.9677465 1.7793389e-38
0.13619457 0.37495199 1.9623343 1.7424245e-38
0.16389026 0.37752882 1.9648234 1.751464e-38
0.19223894 0.37955627 1.9681259 1.6132063e-38
0.22623871 0.37762141 1.9658613 1.4102672e-38
0.25238466 0.37856752 1.968647 1.3825358e-38
0.28408805 0.37493512 1.9686555 1.3732803e-38
0.32054946 0.37742758 1.9611685 1.437853e-38
0.34799343 0.37873825 1.9597683 1.4193054e-38
0.37297297 0.37603983 1.9612015 1.3732442e-38
0.40566903 0.38267148 1.9667585 1.3364012e-38
0.4341276 0.38141116 1.9627596 1.3085989e-38
0.46881455 0.38102591 1.9651365 1.3363292e-38
0.49143291 0.37732539 1.9604611 1.3179263e-38
0.52209359 0.38108259 1.9618285 1.3271815e-38
0.55530953 0.38105816 1.9636351 1.3365091e-38
0.5865078 0.3849113 1.9703162 1.2902667e-38
0.6153487 0.38129294 1.9661969 1.2164388e-38
0.64119321 0.38284656 1.9722013 1.1335351e-38
0.67417932 0.38055119 1.9699621 1.1520824e-38
0.70247555 0.38443059 1.9631188 1.1707371e-38
0.73724568 0.38529286 1.9636596 1.2811199e-38
0.76740342 0.38278687 1.9680878 1.2902677e-38
0.79063284 0.38310137 1.9693228 1.2350226e-38
0.81702453 0.38440654 1.9680828 1.1612301e-38
0.85554492 0.38105661 1.9643507 1.0874743e-38
0.87798262 0.38095832 1.9623535 1.1058773e-38
0.90129805 0.38525063 1.9629927 1.0966944e-38
0.94011426 0.38508958 1.9652147 1.1430439e-38
0.96644372 0.38881344 1.964543 1.1706666e-38
1.0011075 0.38597977 1.9689221 1.1800292e-38
1.0312133 0.3860057 1.9579999 1.1707015e-38
1.0581477 0.38557273 1.9653333 1.1428997e-38
1.1070242 0.38709 1.9635 1.1061304e-38
1.1300353 0.38834572 1.9630001 1.1429716e-38
1.1492637 0.38779831 1.9628887 1.1798857e-38
-0.94664162 0.39381331 1.9725397 1.5300146e-38
-0.91949677 0.39335608 1.9676632 1.5575654e-38
-0.88576829 0.39217728 1.964854 1.613026e-38
-0.85667157 0.39206117 1.9662294 1.5855111e-38
-0.82449222 0.39507231 1.9609164 1.640792e-38
-0.79310966 0.39348048 1.9635442 1.6313932e-38
-0.76600569 0.3973465 1.9712286 1.6131699e-38
-0.7315008 0.39298758 1.9656289 1.4472176e-38
-0.61632001 0.39376521 1.9784458 1.6686659e-38
-0.59399521 0.39913478 1.9703068 1.6958574e-38
-0.50653011 0.39024711 1.9757466 1.3180353e-38
-0.45363483 0.39392495 1.9559705 1.6313943e-38
-0.43008396 0.39360461 1.9615812 1.6039512e-38
-0.40331864 0.39060232 1.9549644 1.5855843e-38
-0.37399733 0.39204317 1.9666612 1.659016e-38
-0.32152569 0.3919982 1.9636989 1.8048737e-38
0.10937926 0.39259982 1.9598134 1.9266001e-38
0.39510864 0.39363673 1.9597431 1.3452601e-38
0.42167547 0.39052111 1.9583306 1.280724e-38
0.52764529 0.39377216 1.9793022 1.3271105e-38
0.65786421 0.39343125 1.9628729 1.1150597e-38
0.67270815 0.39294487 1.9614909 1.1243149e-38
0.71480608 0.3918744 1.978654 1.3178179e-38
0.73874158 0.39216691 1.9719083 1.2077955e-38
0.77293909 0.39120978 1.9599042 1.2626805e-38
0.79713285 0.39510748 1.9681513 1.1888881e-38
0.82472634 0.39546582 1.9678868 1.1611935e-38
0.85482097 0.39456066 1.9618641 1.1429348e-38
0.88727349 0.39544463 1.9643195 1.1519744e-38
0.92279047 0.39581454 1.9710903 1.1427558e-38
0.94650853 0.39867648 1.966616 1.1798132e-38
0.97457743 0.39836723 1.9642994 1.2717575e-38
1.0092906 0.39420682 1.9668996 1.2072204e-38
1.0369313 0.39490178 1.9690981 1.20722e-38
1.0687692 0.39198431 1.968107 1.1153488e-38
1.0989777 0.40158492 1.9695575 1.179526e-38
1.1214826 0.39872044 1.9660211 1.1980369e-38
1.1484892 0.40232524 1.9634666 1.2165113e-38
-1.2008191 0.35787392 2.0024416 1.4381792e-38
-1.1958758 0.35584456 2.0071211 1.3091763e-38
-1.1559777 0.35409871 1.9987068 1.4013003e-38
-1.1260517 0.35410035 1.9926695 1.4105197e-38
-1.0925325 0.35408673 1.9892416 1.3550947e-38
-1.0652825 0.35632092 1.9974061 1.2999929e-38
-1.0354621 0.3548508 1.9931608 1.3275079e-38
-1.0086746 0.35629743 1.9940917 1.2998132e-38
-0.97240198 0.35459727 1.9966221 1.281446e-38
-0.94699174 0.35561034 2.0007148 1.3367276e-38
-0.91520387 0.35390565 1.9947438 1.4196314e-38
-0.88428181 0.35420516 1.998859 1.3919015e-38
-0.85332054 0.35498324 1.9981511 1.3182165e-38
-0.82520646 0.35655782 2.0009851 1.226093e-38
-0.79549283 0.3559036 1.9976065 1.2351685e-38
-0.7609567 0.35554907 1.9898525 1.3181444e-38
-0.73146313 0.35612059 1.9954029 1.373534e-38
-0.70349735 0.35623205 1.9972671 1.4103045e-38
-0.67643911 0.35609001 1.9911186 1.3918653e-38
-0.64752007 0.3566817 1.9900439 1.3826815e-38
-0.60942119 0.35772049 1.9972773 1.3549871e-38
-0.57702059 0.35448018 1.9837601 1.401049e-38
-0.54868656 0.35504109 1.9910527 1.4288153e-38
-0.52805364 0.35835403 1.9945735 1.3826814e-38
-0.49368405 0.35846576 1.9941977 1.5854756e-38
-0.4549782 0.35864645 1.9886261 1.5848281e-38
-0.42643955 0.35953289 1.9981145 1.7206733e-38
-0.35687158 0.35800073 1.9903375 1.5391984e-38
-0.30864593 0.35698542 2.0070617 1.5852608e-38
-0.2915647 0.35824382 1.9915159 1.6500488e-38
-0.057479121 0.3591404 1.9966643 1.8438047e-38
-1.193152 0.38438016 1.9920391 1.3552392e-38
-1.1575536 0.37764668 1.9981235 1.392081e-38
-1.1324733 0.38920915 1.9909655 1.3369787e-38
-1.0976304 0.3874799 1.9967749 1.3459836e-38
-1.0660514 0.37422895 1.9900938 1.3181443e-38
-1.0352409 0.36446616 1.9913657 1.2262009e-38
-1.0146215 0.37429067 1.9898999 1.2815899e-38
-0.94068396 0.37865278 1.9942921 1.3090325e-38
-0.91490144 0.37059855 1.994051 1.2074382e-38
-0.8869555 0.37239775 1.9937887 1.2720469e-38
-0.84843862 0.37304544 1.9945295 1.2444244e-38
-0.82541138 0.37051857 1.9929461 1.318073e-38
-0.80118996 0.36831772 1.994437 1.2903424e-38
-0.76414567 0.3721534 1.9915439 1.3827535e-38
-0.73810428 0.36940542 1.9939636 1.3919008e-38
-0.70796764 0.37134197 1.9940223 1.4841326e-38
-0.67727679 0.37128091 1.9921048 1.456366e-38
-0.64545912 0.37287527 1.9955027 1.4748769e-38
-0.61886674 0.37283906 1.9954879 1.4471466e-38
-0.58736432 0.36819142 1.9943573 1.4380349e-38
-0.55997163 0.3690984 1.9917967 1.4656576e-38
-0.52699953 0.36908156 1.9917763 1.5025721e-38
-0.49337032 0.36895683 1.9949715 1.5762566e-38
-0.46984953 0.36926055 1.9978185 1.576077e-38
-0.4363479 0.37002233 1.9908458 1.5939756e-38
-0.40596887 0.37168258 1.9934663 1.730973e-38
-0.37689623 0.37218672 1.995562 1.7679235e-38
-0.34517041 0.36996928 1.9933 1.5848641e-38
-0.31442368 0.36857259 1.9965881 1.548562e-38
-0.28553283 0.36885577 1.9954067 1.6223546e-38
-0.25776321 0.37269568 1.999759 1.6130991e-38
-0.22739524 0.37078726 1.9946301 1.5947678e-38
-0.19677536 0.37453401 1.9933957 1.6223546e-38
-0.16529478 0.37463561 1.9937075 1.6039513e-38
-0.13683254 0.37100333 1.9939854 1.631682e-38
-0.10285342 0.37323335 2.0008764 1.6870711e-38
-0.075913772 0.37085038 1.9958705 1.7700478e-38
-0.049346842 0.37410015 1.9942173 1.7884149e-38
-0.017576018 0.37318578 1.9906604 1.8068899e-38
0.015585689 0.37579229 1.9949031 1.852988e-38
0.042124324 0.37645212 1.9941213 1.8069619e-38
0.073005669 0.37652516 1.9959978 1.8161456e-38
0.10255809 0.37866566 1.9901623 1.8530237e-38
0.13011231 0.37890252 1.9942343 1.8253649e-38
0.16328445 0.37784216 1.9918618 1.6778156e-38
0.19279192 0.37726203 1.9936653 1.4749125e-38
0.22233307 0.37771192 1.9936398 1.419487e-38
0.25115073 0.37944195 1.9977683 1.3548775e-38
0.28120869 0.37786752 1.9994392 1.3824998e-38
0.31016749 0.37798879 1.992188 1.4101582e-38
0.34556198 0.37893668 1.9915801 1.4285251e-38
0.37330672 0.37806347 1.9933039 1.3548767e-38
0.40423721 0.38058284 1.9909085 1.3732075e-38
0.43549612 0.38112018 1.9943817 1.3178544e-38
0.4663001 0.37883154 1.9932945 1.3179621e-38
0.4977417 0.37900144 1.9936774 1.2810837e-38
0.5214178 0.38304597 1.994944 1.2995227e-38
0.55434453 0.38039774 1.995204 1.3180697e-38
0.58190918 0.38421145 2.000056 1.2718998e-38
0.60824704 0.38447464 1.9990573 1.244061e-38
0.64020717 0.38143682 1.993333 1.1888162e-38
0.67282218 0.38324553 1.9972992 1.1703778e-38
0.70189035 0.38270864 1.9895 1.1796692e-38
0.73913902 0.38355964 1.9914055 1.2627168e-38
0.76297295 0.38592541 1.9891217 1.2810843e-38
0.79110777 0.38549259 1.9969212 1.2165835e-38
0.82068443 0.38444883 1.9968171 1.1059848e-38
0.85640752 0.38579738 1.999123 1.0967296e-38
0.91663504 0.38680518 2.0004137 1.0784705e-38
0.94277924 0.38536748 1.9915085 1.2165841e-38
0.97634447 0.38650727 1.9999985 1.1707023e-38
1.0149714 0.38891429 1.992 1.1708818e-38
1.0357113 0.38461447 1.9967213 1.1983244e-38
1.0574675 0.38739657 1.992 1.1704861e-38
1.1309786 0.38518998 1.9875 1.1520838e-38
1.1537652 0.38760397 1.9943078 1.189033e-38
-1.1807942 0.39294603 2.0087926 1.3275086e-38
-1.1402515 0.3915883 1.992353 1.456402e-38
-1.0009725 0.3907733 2.0004532 1.484096e-38
-0.94766986 0.39432997 1.998613 1.539198e-38
-0.91595334 0.39484534 2.0030098 1.5852238e-38
-0.89221537 0.39238524 1.9907441 1.4840603e-38
-0.85366666 0.39411566 1.9949025 1.5393769e-38
-0.83278412 0.39354628 1.9833634 1.622353e-38
-0.80402017 0.39223588 1.9870228 1.5947661e-38
-0.76530087 0.39397737 1.993098 1.5301581e-38
-0.73495859 0.39234471 1.9964432 1.566965e-38
-0.68037105 0.39111495 1.9914224 1.5669642e-38
-0.52206993 0.39125311 2.0023041 1.318071e-38
-0.45745081 0.39226246 1.9955504 1.5855842e-38
-0.43750384 0.39473909 1.9919121 1.5764005e-38
-0.41258675 0.39481446 1.9952408 1.6317178e-38
-0.37880239 0.39430803 1.9990358 1.649833e-38
-0.35641128 0.39187887 1.9935217 1.6587997e-38
-0.31820241 0.39074233 1.9883676 1.7959777e-38
-0.24574339 0.39058736 1.9911377 1.6498691e-38
-0.18934228 0.39015043 1.9915336 1.6868553e-38
-0.034916498 0.39026836 2.0026586 1.8067824e-38
0.083062775 0.39198422 2.0060096 1.9727701e-38
0.10100389 0.39122352 1.9953296 1.9542946e-38
0.19634637 0.39425954 1.9927632 1.7610419e-38
0.49928558 0.39218134 2.0003705 1.4100852e-38
0.52645743 0.39343756 1.9980036 1.3823552e-38
0.55848068 0.39363727 2.0019271 1.3181418e-38
0.58400673 0.3931452 1.9939709 1.3362568e-38
0.77403039 0.39289579 1.9952627 1.1800645e-38
0.80179971 0.39282331 1.9926912 1.2071116e-38
0.8236165 0.39599741 1.99298 1.1244237e-38
0.84938645 0.3952176 1.9938693 1.1427548e-38
0.88794744 0.39396021 1.9905202 1.1520107e-38
0.92218161 0.39236045 1.9892472 1.1611944e-38
0.94666564 0.3922022 1.9934115 1.1889615e-38
0.97920716 0.39478636 1.9921696 1.2166558e-38
1.0054216 0.3964597 1.9984128 1.2074004e-38
1.0348744 0.39729986 1.9998598 1.2072565e-38
1.0668612 0.39556736 1.9972122 1.1521185e-38
1.0999888 0.39905307 1.9988866 1.1335724e-38
1.124536 0.39730391 1.995252 1.1704867e-38
1.1418358 0.39995313 1.9863497 1.2073644e-38
-1.176518 0.35916275 2.0275636 1.4565102e-38
-1.1685736 0.35053733 2.0111988 1.3919724e-38
-1.1215142 0.35454011 2.0234182 1.3273284e-38
-1.0898297 0.35436863 2.0198619 1.3088891e-38
-1.0654724 0.35673302 2.0290728 1.3367275e-38
-1.0350502 0.35800126 2.0314624 1.2628279e-38
-1.0043957 0.35556996 2.0233128 1.3365838e-38
-0.9766826 0.35465726 2.0217226 1.2537877e-38
-0.94658947 0.35561475 2.0246446 1.3458754e-38
-0.91489917 0.3541587 2.0242698 1.4565098e-38
-0.88834685 0.35519904 2.0263042 1.3827175e-38
-0.85637707 0.35607463 2.0291138 1.2629352e-38
-0.82628584 0.35596657 2.0288897 1.2168373e-38
-0.7908029 0.35700938 2.0272653 1.2536439e-38
-0.76640743 0.35682815 2.0231631 1.2996696e-38
-0.74012566 0.3546173 2.0241203 1.3274001e-38
-0.7084021 0.35595217 2.0225744 1.3826817e-38
-0.67573136 0.35685283 2.0240767 1.354987e-38
-0.64341986 0.35576209 2.0314445 1.3091417e-38
-0.62405622 0.35463992 2.0347517 1.3828258e-38
-0.5868696 0.3552562 2.0146589 1.3733898e-38
-0.5608179 0.35744733 2.0196524 1.3826458e-38
-0.52869409 0.35810703 2.0315988 1.3088893e-38
-0.49978441 0.35927385 2.0388365 1.4931365e-38
-0.46164656 0.35915694 2.0186155 1.6585487e-38
-0.4336386 0.35941657 2.0262997 1.7482602e-38
-0.32480171 0.35764918 2.0361648 1.5575304e-38
-0.11501934 0.35973978 2.0320239 1.5300877e-38
-1.1973588 0.38223493 2.029659 1.38279e-38
-1.1491262 0.36169562 2.0339024 1.4107358e-38
-1.1305425 0.38015926 2.0230114 1.3459833e-38
-1.0966066 0.38049826 2.0227387 1.3091049e-38
-1.061008 0.37358713 2.0174046 1.3919002e-38
-1.0326877 0.36794806 2.0191617 1.2444951e-38
-1.0094039 0.3622978 2.0269542 1.2354189e-38
-0.9751786 0.37913358 2.0314991 1.3365474e-38
-0.94320923 0.37545568 2.0270784 1.2998848e-38
-0.91834319 0.38181591 2.0230651 1.3366553e-38
-0.89071745 0.38464028 2.0257473 1.4011204e-38
-0.85761577 0.36965936 2.0267322 1.3088894e-38
-0.82572615 0.37174606 2.0259132 1.272047e-38
-0.79323542 0.36623979 2.0218329 1.2720828e-38
-0.76403552 0.36678156 2.0225317 1.2997413e-38
-0.73628259 0.36886874 2.026799 1.4103401e-38
-0.70725417 0.37062615 2.0234394 1.4379988e-38
-0.67748618 0.37334836 2.0262461 1.4748051e-38
-0.64471227 0.37079135 2.0232069 1.4748408e-38
-0.61553961 0.36848772 2.0271416 1.3827177e-38
-0.58419532 0.37134233 2.0240622 1.4287435e-38
-0.55607957 0.36779949 2.0198462 1.4656216e-38
-0.52416831 0.3674368 2.0243437 1.520975e-38
-0.49416882 0.36804554 2.0296278 1.6131707e-38
-0.46428508 0.37224156 2.0250254 1.6034477e-38
-0.43366104 0.37280986 2.0229354 1.6671563e-38
-0.40596932 0.37159204 2.0255847 1.7493402e-38
-0.37594926 0.37473279 2.023335 1.7039265e-38
-0.3452262 0.37172008 2.0246227 1.5756807e-38
-0.32095659 0.37170815 2.0243006 1.5485257e-38
-0.28477648 0.37096348 2.0240254 1.5946957e-38
-0.25658205 0.36997652 2.0268669 1.5854763e-38
-0.22381397 0.3729488 2.0261097 1.5670732e-38
-0.19627613 0.37357149 2.0223947 1.594732e-38
-0.16653459 0.37391376 2.0213237 1.5947678e-38
-0.13883916 0.37195584 2.0237424 1.6039875e-38
-0.10863648 0.37536785 2.027679 1.6593407e-38
-0.074911505 0.37536344 2.0245662 1.7423531e-38
-0.04410718 0.37504417 2.0215874 1.7884507e-38
-0.0179454 0.37482992 2.0260768 1.7700478e-38
0.0092136106 0.37494957 2.0237052 1.7977065e-38
0.043582849 0.37669858 2.0247908 1.825365e-38
0.07490994 0.37818813 2.0280058 1.7885231e-38
0.10489208 0.38050994 2.0225935 1.80689e-38
0.13160174 0.37896112 2.0240362 1.8161815e-38
0.16414428 0.37748718 2.0252094 1.7423525e-38
0.18903971 0.37880933 2.0261402 1.6408291e-38
0.22016527 0.38018286 2.0257266 1.410195e-38
0.25346366 0.37739238 2.0308278 1.3825002e-38
0.28289446 0.37997693 2.0292251 1.3917553e-38
0.3124699 0.38042021 2.0217197 1.4101223e-38
0.34199071 0.38002616 2.0210862 1.410122e-38
0.37342358 0.37658265 2.024848 1.3824635e-38
0.40106964 0.38065743 2.0263929 1.3639881e-38
0.43273517 0.38074267 2.0273938 1.3177825e-38
0.46375561 0.3807362 2.0203245 1.3087427e-38
0.497576 0.38417038 2.0232859 1.2534611e-38
0.52250648 0.38286281 2.0247874 1.262645e-38
0.55421823 0.3830055 2.0298741 1.3179979e-38
0.58159101 0.38416764 2.0301154 1.2627164e-38
0.61408669 0.38397238 2.0221756 1.2164388e-38
0.6408757 0.38853806 2.0231476 1.1241718e-38
0.67208403 0.37999699 2.0291154 1.1703779e-38
0.70336562 0.38726205 2.0353274 1.1796332e-38
0.7306875 0.38172555 2.0260866 1.2256952e-38
0.76157105 0.38491279 2.0260282 1.290304e-38
0.79716188 0.38396251 2.0228987 1.2074001e-38
0.82027918 0.38319069 2.0304372 1.152047e-38
0.85352814 0.38630986 2.0196154 1.1518675e-38
0.87680262 0.38619289 2.0328016 1.0781834e-38
0.90735584 0.38915038 2.0323892 1.1059849e-38
0.94798052 0.38895404 2.0345147 1.1243893e-38
0.98647332 0.3880257 2.027 1.2074731e-38
0.99903291 0.38614368 2.0257225 1.1891775e-38
1.0359825 0.38534528 2.0331309 1.17081e-38
1.0991586 0.38895032 2.0198002 1.1151699e-38
1.1253533 0.38800287 2.027 1.1429366e-38
1.1566375 0.38518032 2.0150003 1.1890333e-38
1.1838442 0.38905305 2.0190001 1.2167636e-38
-1.1709411 0.39000005 2.023416 1.3644589e-38
-1.0263466 0.39161935 2.0335412 1.4287073e-38
-0.94463849 0.39466417 2.0352082 1.5852955e-38
-0.92077655 0.39081451 2.033402 1.3736052e-38
-0.89558208 0.39363492 2.0235488 1.3735689e-38
-0.86267292 0.39415306 2.0110111 1.5946945e-38
-0.83587551 0.39413768 2.0219576 1.6408282e-38
-0.80588609 0.39185971 2.0152056 1.5487767e-38
-0.76071465 0.39218879 2.0261285 1.5485619e-38
-0.71771574 0.39019674 2.0163178 1.6499046e-38
-0.53818476 0.39315656 2.0280221 1.2996678e-38
-0.45249975 0.39348823 2.0262499 1.5302668e-38
-0.4411602 0.39457828 2.0248322 1.6224264e-38
-0.39315584 0.39526373 2.0366299 1.6499404e-38
-0.38244656 0.39030698 2.0364699 1.677311e-38
-0.35031408 0.39590663 2.0350533 1.768355e-38
-0.24687015 0.39041829 2.0222621 1.6591245e-38
-0.21210974 0.39004308 2.0157416 1.7238055e-38
-0.20531502 0.3924672 2.0200975 1.6959683e-38
0.08058276 0.39020768 2.0370314 1.8622072e-38
0.10495503 0.39125735 2.0146747 1.9451469e-38
0.1844852 0.39213434 2.0235758 1.7237339e-38
0.3760159 0.39040029 2.0260611 1.4191972e-38
0.4103736 0.39103138 2.0313821 1.4100493e-38
0.42139333 0.39032286 2.039 1.3640957e-38
0.46022642 0.39145693 2.0258036 1.3362572e-38
0.50648391 0.39212805 2.0221159 1.3825701e-38
0.53675121 0.39310548 2.0234115 1.3824265e-38
0.55353791 0.39457738 2.0286655 1.373172e-38
0.6223045 0.39274514 2.0125613 1.188708e-38
0.70820493 0.39157462 2.0146017 1.2165109e-38
0.74155962 0.39140886 2.0193079 1.2812994e-38
0.77301449 0.39287606 2.0217559 1.170917e-38
0.78769809 0.39230913 2.0269444 1.1613735e-38
0.83664447 0.39562088 2.0198569 1.1519744e-38
0.85761565 0.39544049 2.0276933 1.1334277e-38
0.88646024 0.39564759 2.018816 1.1426832e-38
0.91399413 0.39694229 2.0271719 1.0693943e-38
0.94990343 0.39543915 2.0234709 1.1980735e-38
0.97443283 0.3995316 2.0303335 1.2257316e-38
1.0019687 0.39811072 2.0299268 1.2166199e-38
1.0367311 0.39621776 2.0300128 1.1798133e-38
1.0717673 0.39816004 2.0380974 1.1795259e-38
1.0973877 0.39653766 2.0266824 1.1427914e-38
1.1214173 0.40029424 2.0303755 1.1612311e-38
1.1476142 0.39902872 2.0327215 1.1980375e-38
1.1864536 0.39888549 2.0308416 1.2259108e-38
1.2111441 0.39904487 2.0309629 1.1797777e-38
-1.2178667 0.3544651 2.0562696 1.3366919e-38
-1.1837609 0.35550523 2.0530152 1.392045e-38
-1.1548964 0.35726574 2.0572588 1.3921523e-38
-1.1266623 0.35589737 2.0551684 1.3458394e-38
-1.0964155 0.35776061 2.057411 1.3087818e-38
-1.0609128 0.35804099 2.0578337 1.3089972e-38
-1.0361457 0.35517383 2.054533 1.3550954e-38
-1.0063105 0.35686737 2.0565383 1.1892513e-38
-0.97417259 0.35589606 2.0493269 1.3274004e-38
-0.94478267 0.35329336 2.0554419 1.3734977e-38
-0.91505015 0.35455424 2.0560527 1.4380701e-38
-0.88309103 0.35616079 2.056649 1.355059e-38
-0.85778123 0.3557924 2.0546134 1.3182165e-38
-0.82453406 0.3565287 2.0564749 1.2351331e-38
-0.79193687 0.35721129 2.0541267 1.2352407e-38
-0.76460075 0.35723543 2.0572345 1.2444244e-38
-0.72997415 0.35575533 2.0542128 1.336584e-38
-0.70294267 0.3568854 2.046766 1.401013e-38
-0.67067069 0.35610947 2.0501606 1.3919375e-38
-0.64278603 0.35816431 2.0557106 1.3274364e-38
-0.59549648 0.35658839 2.0445964 1.4286354e-38
-0.56694376 0.35826981 2.0532246 1.3274004e-38
-0.5372982 0.35882175 2.0600586 1.3825739e-38
-0.50560361 0.35767233 2.0429618 1.4932085e-38
-0.34489936 0.35954499 2.0573416 1.4382155e-38
-1.22411 0.37915319 2.0562088 1.3830058e-38
-1.1999956 0.38413227 2.0581849 1.3459842e-38
-1.1468142 0.38609499 2.0574729 1.3460193e-38
-1.1272901 0.38073632 2.0576539 1.2907021e-38
-1.0918078 0.37412122 2.0499372 1.3367273e-38
-1.0648834 0.38046619 2.0565891 1.3826445e-38
-1.0401692 0.37367725 2.0466895 1.2812658e-38
-0.99372786 0.3854489 2.0567756 1.4197028e-38
-0.97642505 0.38223508 2.0555208 1.3642061e-38
-0.94905549 0.37740862 2.0580978 1.3367271e-38
-0.91964686 0.37005779 2.0561883 1.4748408e-38
-0.88527763 0.37472048 2.0540183 1.3181088e-38
-0.851946 0.37052214 2.0538266 1.2903781e-38
-0.82063425 0.36481366 2.0548663 1.2352767e-38
-0.79615045 0.36918396 2.0527718 1.2997416e-38
-0.76404279 0.36782768 2.0527227 1.3549867e-38
-0.737468 0.37019226 2.0487401 1.3826452e-38
-0.70316553 0.36804014 2.0531898 1.4103761e-38
-0.67456794 0.36606437 2.0546951 1.3918651e-38
-0.64877492 0.36896792 2.054718 1.4010488e-38
-0.61464447 0.37049288 2.0556338 1.4011209e-38
-0.58538908 0.36787963 2.0573399 1.3549872e-38
-0.55512184 0.36756611 2.054075 1.4195598e-38
-0.52624327 0.3705425 2.0539794 1.4932444e-38
-0.49364516 0.36997473 2.0580215 1.6408294e-38
-0.46493521 0.37367994 2.0528769 1.6309979e-38
-0.43681541 0.37293661 2.0548468 1.7036744e-38
-0.40702194 0.37198022 2.0558288 1.7677073e-38
-0.3744351 0.36896384 2.0514605 1.5847926e-38
-0.34718242 0.37451777 2.0532837 1.5575295e-38
-0.31327066 0.37086874 2.0553482 1.5670012e-38
-0.28348008 0.37261567 2.0568962 1.6130988e-38
-0.25194767 0.37159199 2.0567148 1.5485981e-38
-0.22578092 0.37476602 2.0514014 1.5948038e-38
-0.19457582 0.37319335 2.0528929 1.6040235e-38
-0.16715397 0.37247241 2.0499594 1.5855843e-38
-0.13435428 0.37090617 2.0545483 1.6040593e-38
-0.10299395 0.37475568 2.0567026 1.6593767e-38
-0.078195706 0.37497708 2.0530202 1.7423532e-38
-0.046555385 0.37536231 2.0498106 1.806926e-38
-0.017481091 0.37579867 2.0552487 1.7700478e-38
0.013349028 0.3753804 2.0574872 1.7055829e-38
0.042490173 0.37759325 2.0545166 1.7608642e-38
0.074251056 0.37845469 2.0570621 1.8161456e-38
0.10702769 0.3798202 2.0562239 1.7701197e-38
0.13556564 0.37876281 2.0540221 1.825401e-38
0.16274522 0.37873152 2.0526443 1.7330969e-38
0.19556017 0.37949923 2.0545602 1.5301578e-38
0.22627518 0.37975302 2.0583339 1.4010832e-38
0.2582297 0.38139975 2.0553393 1.3825365e-38
0.27774262 0.37942758 2.0615065 1.4009388e-38
0.31471705 0.37753564 2.0509522 1.373172e-38
0.34570953 0.383026 2.0498075 1.4193414e-38
0.37727171 0.38023266 2.0553339 1.3732795e-38
0.40379655 0.38046291 2.0590022 1.3271455e-38
0.42693099 0.38047111 2.0495427 1.280976e-38
0.4599556 0.38299575 2.0480573 1.31789e-38
0.4913328 0.38344505 2.0547726 1.2717561e-38
0.51532829 0.38085544 2.0530262 1.2533896e-38
0.5523808 0.3842209 2.0592282 1.2903396e-38
0.58081114 0.3832458 2.0576258 1.2811556e-38
0.61136365 0.38430408 2.056464 1.2073271e-38
0.65638435 0.38017303 2.0561824 1.1059132e-38
0.66332072 0.38076416 2.0475843 1.1794534e-38
0.70708013 0.38148856 2.0566521 1.1980725e-38
0.76771677 0.385923 2.0554612 1.271973e-38
0.79680037 0.37914369 2.0540493 1.2535695e-38
0.82508922 0.37917206 2.0531859 1.1614823e-38
0.84680271 0.38450032 2.0566061 1.179562e-38
0.8708902 0.3895044 2.059191 1.0966939e-38
0.90590793 0.38775101 2.0580308 1.1151687e-38
0.93237036 0.38895968 2.0582349 1.1243528e-38
0.97332942 0.38723135 2.056211 1.1980017e-38
1.005942 0.37778604 2.059 1.1892133e-38
1.0308081 0.38113964 2.0527432 1.1431874e-38
1.0519359 0.38637787 2.060492 1.1154929e-38
1.1252623 0.38838229 2.0534 1.1614473e-38
1.2091134 0.38871336 2.0510001 1.1796708e-38
-1.1846824 0.3912459 2.0559137 1.3459124e-38
-0.95666867 0.3962054 2.06675 1.5669645e-38
-0.92794526 0.39241984 2.058176 1.3551665e-38
-0.89428103 0.39117715 2.050869 1.3825731e-38
-0.86041057 0.39229688 2.0520103 1.5855111e-38
-0.83095008 0.39374751 2.0522699 1.4564733e-38
-0.76751566 0.39338127 2.0623453 1.5300866e-38
-0.73414469 0.39161414 2.0501947 1.6223537e-38
-0.70221645 0.39159197 2.0496569 1.6960738e-38
-0.68830466 0.39104033 2.0607107 1.5484892e-38
-0.55147344 0.39704069 2.0559726 1.2721172e-38
-0.4579061 0.39401662 2.0584917 1.5119001e-38
-0.44575623 0.39745808 2.0488398 1.6129553e-38
-0.38276646 0.39032766 2.0670359 1.7597833e-38
-0.34282699 0.39226645 2.0535548 1.8141663e-38
-0.25189173 0.39076933 2.0400834 1.6684158e-38
0.10348102 0.39168772 2.0598826 1.9080893e-38
0.12774089 0.3913826 2.0561275 1.9265638e-38
0.26008439 0.39296955 2.0656862 1.437818e-38
0.34747872 0.39186662 2.0427127 1.4378162e-38
0.36393893 0.39252993 2.0649893 1.4009378e-38
0.39591724 0.39138812 2.0556431 1.4101582e-38
0.42944136 0.39014587 2.0610533 1.336365e-38
0.4724932 0.39166126 2.0573902 1.3823179e-38
0.48503843 0.39339581 2.0565746 1.3362569e-38
0.52634293 0.3900601 2.0605016 1.2350935e-38
0.54063046 0.3924582 2.0600266 1.363952e-38
0.62275565 0.39227203 2.050873 1.1981072e-38
0.64546221 0.39140648 2.0541875 1.1334993e-38
0.6604498 0.39037153 2.0472302 1.13332e-38
0.71456444 0.39639187 2.0496287 1.2440617e-38
0.73081815 0.39193842 2.0484018 1.2257666e-38
0.76318455 0.39236951 2.0533695 1.272044e-38
0.78887618 0.39330724 2.0587292 1.2349499e-38
0.82325834 0.39179468 2.0596025 1.1425743e-38
0.85386467 0.39338976 2.0588257 1.0689273e-38
0.88424772 0.39993387 2.0552366 1.1334994e-38
0.92007649 0.39759851 2.0572071 1.1152764e-38
0.94258279 0.39891109 2.0573835 1.1706293e-38
0.97309798 0.39653859 2.0524521 1.2257316e-38
1.0055065 0.40098283 2.0538726 1.2167278e-38
1.0376176 0.39768538 2.0545495 1.1890329e-38
1.0723448 0.40044516 2.0630369 1.1795978e-38
1.1036334 0.39262003 2.0510001 1.1703426e-38
1.128701 0.39953849 2.0563343 1.1796701e-38
1.151334 0.40087569 2.0589068 1.2074002e-38
1.1903458 0.40064913 2.0518107 1.2167274e-38
1.2108659 0.40003169 2.0536976 1.1891408e-38
-1.2404996 0.35194051 2.0788069 1.3181095e-38
-1.2201128 0.35516211 2.0783224 1.3643147e-38
-1.1891425 0.35498723 2.0855668 1.3273277e-38
-1.1526855 0.35454309 2.0909171 1.4011927e-38
-1.1216208 0.35514066 2.0863729 1.4011567e-38
-1.0940893 0.35541654 2.0850551 1.3642425e-38
-1.0653285 0.35641703 2.087703 1.3274007e-38
-1.0355883 0.35463023 2.0882938 1.3366203e-38
-1.005821 0.35655171 2.079571 1.2536801e-38
-0.97559589 0.35538921 2.0825531 1.2905222e-38
-0.94485253 0.35535985 2.0869789 1.3458391e-38
-0.91107738 0.3550249 2.0892091 1.4290306e-38
-0.88366455 0.35649723 2.0851626 1.4195959e-38
-0.85949647 0.35625947 2.0909591 1.2813025e-38
-0.83102703 0.35481223 2.0856454 1.2259133e-38
-0.79970127 0.35672885 2.0833931 1.272047e-38
-0.76961625 0.35716403 2.0876806 1.3273646e-38
-0.73282903 0.35794359 2.0876045 1.3918652e-38
-0.70203936 0.35835904 2.081687 1.3919016e-38
-0.68163645 0.35755971 2.082263 1.3641352e-38
-0.64569944 0.35657167 2.0775356 1.3919737e-38
-0.6115489 0.35775584 2.0818515 1.4287797e-38
-0.57415634 0.35748762 2.0772543 1.3548792e-38
-0.5472976 0.35975081 2.089242 1.3734261e-38
-0.35735646 0.35864279 2.0808358 1.4844568e-38
-1.2486029 0.3821587 2.0820007 1.3366923e-38
-1.2162632 0.38696581 2.0783782 1.3459842e-38
-1.1839017 0.37305757 2.0885303 1.3830054e-38
-1.1578348 0.38344231 2.0868051 1.3182885e-38
-1.1319942 0.37234807 2.0853083 1.3182169e-38
-1.1000283 0.37366626 2.0785224 1.2813741e-38
-1.0710783 0.37703937 2.0771258 1.2813741e-38
-1.0301374 0.3644453 2.0859499 1.2537164e-38
-1.0054202 0.38032684 2.0833185 1.3458031e-38
-0.97783387 0.37672445 2.0854762 1.3549865e-38
-0.94503003 0.36821422 2.0909016 1.3826817e-38
-0.91448545 0.37575725 2.09043 1.4195235e-38
-0.88423604 0.37711453 2.0912349 1.3733541e-38
-0.85285985 0.36531749 2.0834591 1.2812669e-38
-0.82100087 0.37084877 2.0848827 1.2997415e-38
-0.79317051 0.37788898 2.0893273 1.4195238e-38
-0.76242608 0.36869776 2.0863385 1.3825739e-38
-0.73629123 0.36950415 2.0818994 1.4195955e-38
-0.70379847 0.36981875 2.088769 1.419524e-38
-0.67402583 0.3685852 2.0817118 1.4010492e-38
-0.64565861 0.3683899 2.086498 1.3734262e-38
-0.61443645 0.36909539 2.0848584 1.3734624e-38
-0.58652091 0.36667329 2.088325 1.4011208e-38
-0.55358654 0.37269682 2.086153 1.4010848e-38
-0.52359736 0.36922348 2.0864084 1.5024639e-38
-0.49263355 0.36879158 2.0824776 1.6684159e-38
-0.46463582 0.37312844 2.0849776 1.6858834e-38
-0.43441549 0.36992231 2.0822551 1.7584159e-38
-0.40635875 0.37439364 2.0876749 1.7310453e-38
-0.37939611 0.37237495 2.0819743 1.5939762e-38
-0.34713683 0.37578148 2.0816953 1.5759686e-38
-0.31677517 0.37109557 2.0870318 1.5578176e-38
-0.28410834 0.37223411 2.0829322 1.6222827e-38
-0.25867879 0.37411228 2.0859525 1.6131351e-38
-0.22727752 0.37302524 2.0834775 1.5763289e-38
-0.1947446 0.37314945 2.0814953 1.6132429e-38
-0.16350134 0.37349981 2.0829349 1.6039875e-38
-0.1319114 0.37210095 2.0852201 1.5948399e-38
-0.10209543 0.37345055 2.0858688 1.6593769e-38
-0.072912268 0.37302068 2.0830958 1.7700479e-38
-0.045431938 0.37398034 2.0807359 1.7793392e-38
-0.017863378 0.37594783 2.085485 1.7608641e-38
0.017401746 0.37640342 2.0813811 1.7700479e-38
0.046952553 0.37876806 2.0854673 1.7609004e-38
0.073627047 0.37992924 2.0882022 1.7056547e-38
0.10266206 0.37954617 2.0856891 1.7977426e-38
0.13743341 0.37809765 2.08166 1.7793029e-38
0.16382937 0.38128862 2.088196 1.7331328e-38
0.19267179 0.37904564 2.084465 1.6223897e-38
0.2236533 0.38084537 2.0864418 1.3917559e-38
0.25288245 0.38117409 2.0873272 1.3456584e-38
0.28362703 0.38136989 2.0846641 1.3548768e-38
0.31527737 0.37961492 2.081794 1.327182e-38
0.34782571 0.38247511 2.0807564 1.4009383e-38
0.37273777 0.38281655 2.0798688 1.3824631e-38
0.40423894 0.38232508 2.0833476 1.3087783e-38
0.42346939 0.38369727 2.0830984 1.2626447e-38
0.45669043 0.38307887 2.0818474 1.2810835e-38
0.49539739 0.38167009 2.0787177 1.2624647e-38
0.52450752 0.38139892 2.0856097 1.2166553e-38
0.55167544 0.38415164 2.0869527 1.2535335e-38
0.58394921 0.38424784 2.0816057 1.299487e-38
0.61380839 0.38532677 2.0864697 1.1888521e-38
0.64514816 0.38420373 2.089885 1.1243514e-38
0.67562157 0.38662443 2.0858886 1.1609787e-38
0.71926379 0.38601279 2.0879889 1.2348068e-38
0.73874974 0.38609308 2.0913825 1.197965e-38
0.76918364 0.38504213 2.0858407 1.281121e-38
0.79401404 0.3853583 2.087626 1.3365456e-38
0.83520007 0.37981716 2.0880001 1.2718651e-38
0.84702605 0.38288957 2.0886812 1.2258392e-38
0.88321942 0.38745737 2.0839462 1.1979652e-38
0.90476096 0.38742998 2.0855103 1.1704507e-38
0.94737446 0.38832599 2.0852931 1.1520118e-38
0.98485249 0.38647541 2.0832002 1.2169438e-38
1.0032991 0.38600859 2.0830007 1.2260196e-38
1.0261316 0.38825309 2.0860357 1.1983247e-38
1.0694749 0.38562021 2.0856783 1.1338601e-38
1.1295857 0.38906571 2.079 1.1800292e-38
1.1447657 0.38949713 2.076 1.2073651e-38
1.2229714 0.38777143 2.0880001 1.1519403e-38
-1.0605825 0.39624497 2.0858622 1.4196315e-38
-0.99782157 0.39104861 2.0887184 1.3458027e-38
-0.97575521 0.39324069 2.0851409 1.3642777e-38
-0.94944817 0.39199466 2.0803652 1.3735694e-38
-0.90982974 0.39276183 2.0838513 1.3734611e-38
-0.89011055 0.39409906 2.0718949 1.5208306e-38
-0.85349911 0.39313191 2.0829179 1.4565096e-38
-0.75668734 0.39409083 2.083286 1.5762196e-38
-0.72617644 0.39098558 2.0799775 1.6500124e-38
-0.67229283 0.39217016 2.0813673 1.4103759e-38
-0.37663606 0.39332655 2.0877452 1.8231693e-38
-0.346863 0.3933655 2.0817387 1.7958708e-38
-0.077083014 0.39061168 2.0864382 1.6685604e-38
0.080125064 0.39023343 2.0954356 1.8529159e-38
0.1021358 0.39542872 2.0956035 1.8897942e-38
0.12151477 0.39457601 2.0971422 1.9265651e-38
0.15926945 0.3927297 2.0832987 1.8807185e-38
0.20639703 0.39223695 2.0855563 1.6959674e-38
0.26025313 0.39170247 2.074759 1.4102675e-38
0.33999154 0.39192393 2.0857346 1.4379242e-38
0.36901683 0.39466077 2.091342 1.3916825e-38
0.40202123 0.39196056 2.0864882 1.327218e-38
0.43886811 0.39289892 2.0745497 1.3179981e-38
0.45374748 0.3918252 2.099494 1.2904473e-38
0.48564848 0.39323241 2.0765214 1.3362565e-38
0.52023941 0.39151615 2.0867434 1.2349862e-38
0.54394913 0.39301246 2.0839145 1.3454769e-38
0.57288033 0.3916643 2.0968504 1.290376e-38
0.60911447 0.39341569 2.0823588 1.2440972e-38
0.64112067 0.39221928 2.0821452 1.1428262e-38
0.67293185 0.39341015 2.0871921 1.1794896e-38
0.71079266 0.39584529 2.0893886 1.1980002e-38
0.72869021 0.39277989 2.0804248 1.1980003e-38
0.76826453 0.39276296 2.0824172 1.2536052e-38
0.788894 0.3926875 2.0782604 1.2533534e-38
0.81548405 0.394333 2.0897925 1.1611219e-38
0.85435963 0.39605814 2.0875909 1.0599234e-38
0.88691604 0.39970618 2.0847826 1.1242444e-38
0.91048503 0.39849463 2.0839925 1.1519031e-38
0.93851012 0.39569199 2.0835321 1.207256e-38
0.96880651 0.40205905 2.0877807 1.2164762e-38
0.99996316 0.39732909 2.0863531 1.216656e-38
1.0282233 0.40076196 2.0821807 1.1981444e-38
1.0624417 0.40015101 2.0876138 1.1705221e-38
1.0967386 0.39862978 2.0819678 1.1611589e-38
1.120061 0.39430475 2.0840001 1.1798137e-38
1.1549081 0.39920616 2.0831738 1.2166199e-38
1.1788594 0.40217966 2.0808933 1.2166558e-38
