# .PCD v0.7 - Point Cloud Data file format
VERSION 0.7
FIELDS x y z rgb
SIZE 4 4 4 4
TYPE F F F F
COUNT 1 1 1 1
WIDTH 1087
HEIGHT 1
VIEWPOINT 0 0 0 1 0 0 0
POINTS 1087
DATA ascii
0.4303562 0.33874571 2.237 1.0138628e-38
0.45059574 0.33874571 2.237 1.0230824e-38
0.58362573 0.33521432 2.223 9.9545987e-39
0.69230574 0.33662575 2.223 1.050921e-38
0.12914571 0.34086001 2.223 1.2257696e-38
0.14638065 0.34157556 2.2276669 1.2166582e-38
0.22583047 0.34300667 2.237 1.2166571e-38
0.24770573 0.34086001 2.223 1.1981819e-38
0.26040858 0.34086001 2.223 1.1705237e-38
0.29851714 0.34086001 2.223 1.1243541e-38
0.30959284 0.34139666 2.2265 1.1151703e-38
0.32980511 0.34257731 2.2342 1.0875466e-38
0.34934843 0.34268314 2.227 1.0693949e-38
0.3705 0.34086001 2.223 1.0968383e-38
0.39167145 0.34086001 2.223 1.0139712e-38
0.41654128 0.342987 2.2276669 1.0138989e-38
0.42919713 0.34431142 2.2282498 1.0322661e-38
0.45022762 0.34193334 2.23 1.0138271e-38
0.47296572 0.34300667 2.237 1.0138274e-38
0.48811522 0.3451286 2.2342 1.0505616e-38
0.55411714 0.34382993 2.2258 1.0505976e-38
0.56904095 0.3446238 2.2229998 1.0046078e-38
0.5921762 0.34426993 2.2286 9.9535183e-39
0.6107735 0.34554613 2.2314 9.6783719e-39
0.63488185 0.34726763 2.237 9.7694914e-39
0.64127332 0.34726763 2.237 9.8613269e-39
0.69230574 0.34297714 2.223 1.0046441e-38
0.73676574 0.34932858 2.223 1.0048236e-38
0.7508387 0.34891638 2.2258 1.023263e-38
0.76816618 0.34541705 2.2289999 1.1062751e-38
0.7905066 0.34813485 2.227 1.1705602e-38
0.81129527 0.35042858 2.23 1.1704521e-38
0.83088571 0.35152856 2.237 1.1429727e-38
0.86983311 0.34511745 2.2276666 1.3074848e-38
0.89978576 0.34932858 2.223 1.307521e-38
0.91037142 0.34827 2.223 1.2251209e-38
0.93177241 0.35020858 2.2286 1.1519766e-38
0.94636285 0.34932861 2.223 1.1797064e-38
0.96798575 0.34669623 2.2265 1.1060222e-38
0.9896819 0.35254571 2.23 1.041701e-38
1.0101604 0.35330355 2.2289999 1.0232622e-38
1.0292002 0.35218826 2.2292221 1.0047154e-38
1.0523946 0.35220668 2.2323334 9.494338e-39
1.0631076 0.35152856 2.237 9.1269932e-39
1.0903286 0.35356286 2.223 9.2198979e-39
1.1030314 0.35356286 2.223 9.034792e-39
1.1305543 0.35356286 2.223 8.3901456e-39
1.151046 0.34976861 2.2258 8.4791127e-39
1.1665457 0.35074002 2.223 8.5709468e-39
1.1824143 0.35578951 2.237 8.3879904e-39
1.216502 0.35578951 2.237 7.375279e-39
1.2309502 0.35292575 2.2323332 8.1128483e-39
1.2564759 0.35645875 2.2323334 1.1984347e-38
1.271556 0.35695028 2.223 1.1982547e-38
1.2873493 0.35208994 2.2289999 1.2170534e-38
1.2122409 0.36005047 2.237 7.7436986e-39
1.2207628 0.36005047 2.237 7.6504282e-39
1.2676333 0.36005047 2.237 1.1983986e-38
-0.86648381 0.31956953 2.2520001 9.6754951e-39
-0.85147047 0.31956953 2.2520003 9.7684068e-39
0.35174096 0.33672762 2.2520001 1.0320506e-38
0.37104383 0.33672762 2.2520001 1.0134687e-38
0.43753144 0.33672762 2.2520001 1.0047154e-38
0.45111495 0.33672762 2.2520003 1.0229748e-38
0.094369531 0.34101716 2.2520001 1.1886768e-38
0.10080381 0.34101716 2.2520001 1.2163708e-38
0.14369905 0.34101716 2.2520001 1.2258779e-38
0.22305524 0.34101716 2.2520001 1.1982184e-38
0.24950731 0.34101719 2.2520003 1.1705593e-38
0.26809525 0.34101719 2.2520003 1.1520845e-38
0.29383239 0.34101716 2.2520001 1.0967676e-38
0.31099048 0.34101716 2.2520001 1.0875117e-38
0.33458287 0.34101716 2.2520001 1.078147e-38
0.34745148 0.34101716 2.2520001 1.0506324e-38
0.4396762 0.34530669 2.2520001 1.0229751e-38
0.44825527 0.34101716 2.2520001 1.0230104e-38
0.46755812 0.34101716 2.2520001 1.0230468e-38
0.49329525 0.34530669 2.2520001 1.0503822e-38
0.61125714 0.34530669 2.2520001 9.7709249e-39
0.63270479 0.34745145 2.2520001 9.5872567e-39
0.64342856 0.34530669 2.2520001 1.0137915e-38
0.75066668 0.3495962 2.2520001 1.0508134e-38
0.77139944 0.34530672 2.2520003 1.1062387e-38
0.78927243 0.34530669 2.2520001 1.179851e-38
0.81072003 0.3495962 2.2520001 1.1890706e-38
0.82787812 0.3495962 2.2520001 1.179887e-38
0.84861082 0.35388574 2.2520003 1.2070411e-38
0.8621943 0.35388574 2.2520001 1.2984446e-38
0.92439246 0.3495962 2.2520001 1.1885304e-38
0.94798481 0.3495962 2.2520001 1.106059e-38
0.96728766 0.3495962 2.2520001 1.1520115e-38
1.008038 0.35388574 2.2520001 1.0232979e-38
1.0530782 0.35388574 2.2520003 9.5868952e-39
1.0745257 0.35388574 2.2520001 9.21847e-39
1.0873945 0.35388574 2.2520003 9.2188287e-39
1.1517372 0.35388574 2.2520001 8.0217275e-39
1.1710401 0.3495962 2.2520001 8.7538975e-39
1.1932027 0.35674542 2.2520003 8.1110448e-39
1.2103608 0.35817525 2.2520003 7.6518617e-39
1.2289486 0.35474366 2.2520001 7.3745602e-39
1.2589753 0.35388574 2.2520001 1.235313e-38
1.2739887 0.35817525 2.2520001 1.1799956e-38
1.2868571 0.35603049 2.2520001 1.1891786e-38
1.3133093 0.3495962 2.2520003 1.2726954e-38
1.1967771 0.36246479 2.2520001 8.2046754e-39
1.2096457 0.36246479 2.2520001 7.745135e-39
-0.88266098 0.32155618 2.266 9.4918269e-39
0.094956189 0.33882096 2.266 1.1981112e-38
0.11222095 0.33882096 2.266 1.216586e-38
0.12732762 0.33882099 2.2660003 1.2167298e-38
0.14890859 0.33882099 2.2660003 1.2259852e-38
0.26112953 0.33882096 2.266 1.1427934e-38
0.28271049 0.33882096 2.266 1.1243181e-38
0.33666286 0.33882096 2.266 1.0688921e-38
0.3503308 0.33882099 2.2660003 1.0412338e-38
0.36471811 0.33450475 2.266 1.0228676e-38
0.43161905 0.33882096 2.266 1.0047153e-38
0.45104191 0.33882096 2.266 1.0229745e-38
0.47046477 0.33882096 2.266 1.0322304e-38
0.82655048 0.33774191 2.266 1.1888186e-38
0.24818096 0.34313715 2.266 1.1889264e-38
0.29997525 0.34313715 2.266 1.0966957e-38
0.31292385 0.34313715 2.2660003 1.0874759e-38
0.32803047 0.34313715 2.266 1.0874393e-38
0.47693905 0.34313715 2.266 1.0322664e-38
0.49096668 0.34313715 2.266 1.0504897e-38
0.50283623 0.34313715 2.266 1.0596011e-38
0.61181998 0.3442162 2.266 9.8627604e-39
0.63016379 0.34745333 2.266 9.4961387e-39
0.75317526 0.34745333 2.2660003 1.0783645e-38
0.77044004 0.34486362 2.266 1.0877634e-38
0.79633713 0.34313715 2.266 1.1890341e-38
0.8107245 0.34601459 2.266 1.1890344e-38
0.82990748 0.34553501 2.266 1.2073296e-38
0.85028958 0.35176954 2.266 1.1981811e-38
0.86755431 0.35176954 2.266 1.2985525e-38
0.95172 0.34889206 2.2660003 1.0876919e-38
0.96466863 0.35176954 2.266 1.1337165e-38
0.99488199 0.35176954 2.2660003 1.0783278e-38
1.0035143 0.35176954 2.266 1.0599601e-38
1.0272534 0.35176954 2.266 1.041593e-38
1.0488343 0.35176954 2.266 9.8616856e-39
1.0725733 0.35176954 2.266 9.3106614e-39
1.0855219 0.35608572 2.266 9.2188287e-39
1.154581 0.35608572 2.266 8.0228037e-39
1.1653714 0.35176954 2.266 8.2050411e-39
1.1934267 0.35320827 2.2660003 8.3865485e-39
1.202059 0.35608572 2.266 7.9266536e-39
1.2322724 0.35392761 2.266 7.3742042e-39
1.2495372 0.35176954 2.266 8.0184848e-39
1.2721972 0.35500666 2.266 1.1431901e-38
1.2905409 0.35500669 2.266 1.1616279e-38
1.3088847 0.35176954 2.266 1.2077612e-38
1.2150077 0.3604019 2.266 7.5603864e-39
0.092911743 0.33604795 2.2863336 1.2166932e-38
0.10777581 0.33726114 2.2906001 1.2258054e-38
0.12440476 0.33829364 2.2916667 1.2167298e-38
0.1477219 0.33671904 2.2809999 1.2076179e-38
0.31720474 0.33908093 2.2969999 1.0506696e-38
0.32782084 0.33556858 2.2863336 1.0597807e-38
0.34758091 0.33671904 2.2809999 1.0505612e-38
0.37582189 0.33671904 2.2809999 1.032051e-38
0.1021019 0.3410638 2.2809999 1.2165143e-38
0.13686 0.3410638 2.2809999 1.2168017e-38
0.14120476 0.3410638 2.2809999 1.2168017e-38
0.23845047 0.34345618 2.2969999 1.1707029e-38
0.25243017 0.34265873 2.2916667 1.1521561e-38
0.27218255 0.34186125 2.2863336 1.1243901e-38
0.29027778 0.34265873 2.2916667 1.0967673e-38
0.31238151 0.34297773 2.2938001 1.0507056e-38
0.32802951 0.34106383 2.2809999 1.0598169e-38
0.48226854 0.3410638 2.2809999 1.041414e-38
0.50181997 0.3410638 2.2809999 1.0596014e-38
0.61039233 0.34661999 2.289 9.9542371e-39
0.63216281 0.34540856 2.2809999 9.7723654e-39
0.64850092 0.34601429 2.2849998 1.0322665e-38
0.75598848 0.34540856 2.2809999 1.0875842e-38
0.7686435 0.3462162 2.2863336 1.0784722e-38
0.78968608 0.34395117 2.2878571 1.1245696e-38
0.81080323 0.34462759 2.2874 1.188998e-38
0.85070437 0.34643826 2.2878571 1.2164048e-38
0.87048483 0.3521221 2.2924287 1.2802572e-38
0.88161045 0.35001904 2.2969999 1.3258876e-38
0.93064588 0.35198194 2.2842 1.215973e-38
0.94826287 0.35161048 2.2836668 1.1152063e-38
0.9722724 0.35315236 2.289 1.1153496e-38
0.98707807 0.35159332 2.293 1.1244607e-38
1.0104955 0.35283715 2.2916667 1.0599962e-38
1.0255736 0.35492605 2.2863333 1.0232979e-38
1.048722 0.35334155 2.2874 1.0138627e-38
1.0706818 0.35471904 2.2850001 9.4943352e-39
1.0924437 0.35471904 2.2849998 9.2181098e-39
1.109434 0.35574383 2.2916667 9.3099439e-39
1.157879 0.35844284 2.2809999 8.2986675e-39
1.1725496 0.35205048 2.2878571 8.1128455e-39
1.18612 0.34975332 2.2809999 8.938286e-39
1.2128285 0.35443312 2.2863333 7.926292e-39
1.2289478 0.35563904 2.2909999 7.4663985e-39
1.2469428 0.35548806 2.2969999 7.465681e-39
1.2730638 0.35253903 2.2850001 1.0324819e-38
1.2949047 0.35534 2.289 1.161664e-38
1.3084693 0.35121644 2.2869999 1.179995e-38
1.3229799 0.34975332 2.2809999 1.1804642e-38
1.132093 0.36095715 2.2969999 9.0351521e-39
1.1506876 0.36095715 2.2969999 8.5727404e-39
1.1616256 0.36095715 2.2969999 8.4805448e-39
0.088076189 0.33579049 2.312 1.2258409e-38
0.11229715 0.33689147 2.312 1.2258772e-38
0.12771048 0.33689144 2.312 1.1983624e-38
0.14752762 0.33689144 2.312 1.1891789e-38
0.31927618 0.33689144 2.312 1.0598173e-38
0.13431619 0.34129524 2.312 1.2075823e-38
0.14972952 0.34129524 2.312 1.2076179e-38
0.16294095 0.34129524 2.312 1.2258773e-38
0.23340191 0.34569904 2.312 1.1705237e-38
0.24881522 0.34305677 2.312 1.1429006e-38
0.2664305 0.34129524 2.312 1.1059511e-38
0.29725716 0.34569904 2.312 1.0875479e-38
0.31267047 0.34129524 2.312 1.0598532e-38
0.63635051 0.34569904 2.312 9.9563937e-39
0.64515817 0.34569904 2.312 1.0231542e-38
0.77066672 0.34569904 2.312 1.087512e-38
0.79048383 0.34569904 2.312 1.0969111e-38
0.81690669 0.34569904 2.312 1.1889978e-38
0.82571429 0.34569904 2.312 1.2165126e-38
0.87122035 0.34863493 2.312 1.2710738e-38
0.89177144 0.35230476 2.312 1.316704e-38
0.90057904 0.35010287 2.312 1.2983369e-38
0.93360764 0.35450667 2.312 1.2708586e-38
0.94681907 0.35010287 2.312 1.1518678e-38
0.96443427 0.35010287 2.312 1.0785084e-38
0.98425144 0.35450667 2.312 1.0969824e-38
1.0106742 0.35450667 2.312 1.0876907e-38
1.0304915 0.35450667 2.312 1.032374e-38
1.0481067 0.35450667 2.312 1.0415574e-38
1.0701257 0.35450667 2.312 9.9535225e-39
1.0833372 0.35450667 2.312 9.4939779e-39
1.10976 0.35450667 2.312 9.3099439e-39
1.1289481 0.35702315 2.312 9.2177483e-39
1.1493943 0.35891047 2.312 8.5745397e-39
1.1706793 0.35597461 2.3120003 8.2957962e-39
1.1879276 0.3512038 2.312 8.1124868e-39
1.2132496 0.35230476 2.312 8.5698622e-39
1.2293968 0.35083684 2.3120003 7.9262976e-39
1.2493608 0.35362592 2.312 7.4660468e-39
1.2704991 0.35450667 2.312 7.9248543e-39
1.2925181 0.35450667 2.312 1.1524814e-38
1.3101333 0.35230476 2.312 1.1708832e-38
1.3277487 0.35010287 2.312 1.1891073e-38
0.089755714 0.33464473 2.3269999 1.2165857e-38
0.10416095 0.33464473 2.3269999 1.2258053e-38
0.1322327 0.33907712 2.3270001 1.1983265e-38
0.15143967 0.33907712 2.3270001 1.1891789e-38
0.25929427 0.33907712 2.3269999 1.0968395e-38
0.31543776 0.33759969 2.3270001 1.0598892e-38
0.13961999 0.3435095 2.3269999 1.2076181e-38
0.2526457 0.3435095 2.3269999 1.133681e-38
0.27702379 0.3435095 2.3269999 1.1058432e-38
0.28884348 0.34350953 2.3270001 1.087404e-38
0.30583426 0.3435095 2.3269999 1.0690369e-38
0.61610091 0.34794188 2.3269999 1.0046794e-38
0.62939811 0.34794188 2.3269999 9.9553161e-39
0.65820855 0.34794188 2.3269999 1.0598532e-38
0.66485715 0.34794188 2.3269999 1.0782207e-38
0.77345043 0.34794188 2.3269999 1.0875121e-38
0.83402628 0.34794188 2.3270001 1.1981096e-38
0.85544944 0.3435095 2.3269999 1.2347359e-38
0.86948538 0.3464644 2.3270001 1.2619985e-38
0.89607966 0.34941936 2.3270001 1.2983369e-38
0.90974617 0.34904999 2.3269999 1.2799342e-38
0.92636752 0.35237429 2.3269999 1.2984446e-38
0.95185375 0.34572566 2.3269999 1.1335011e-38
0.96847522 0.34941936 2.3270001 1.0876559e-38
0.99728572 0.35237429 2.3269999 1.1153492e-38
1.0105828 0.35237429 2.3269999 1.0968739e-38
1.0305285 0.35237429 2.3269999 1.0691801e-38
1.0504742 0.35237429 2.3269999 1.0691442e-38
1.0637714 0.35237429 2.3269999 1.0413779e-38
1.0903656 0.35680667 2.3269999 9.494338e-39
1.1103114 0.35414723 2.3269999 9.3099439e-39
1.1324733 0.35237429 2.3270001 9.3081461e-39
1.1521024 0.35554031 2.3270001 8.4823441e-39
1.1716261 0.35532922 2.3269999 8.2957962e-39
1.1886168 0.34941936 2.3270001 8.2032461e-39
1.2122562 0.35237429 2.3270001 8.4791057e-39
1.2299857 0.34882838 2.3269999 8.1110448e-39
1.2486017 0.34794188 2.3269999 7.6507939e-39
1.2676609 0.35237429 2.3269999 7.4656838e-39
1.2898228 0.35237429 2.3269999 8.573102e-39
1.315309 0.35126621 2.3269999 1.1616638e-38
1.327498 0.34794188 2.3269999 1.1801021e-38
1.3518763 0.35459048 2.3269999 1.1990472e-38
1.3696057 0.36123905 2.3269999 1.3832574e-38
0.078366667 0.33584952 2.3509998 1.1891068e-38
0.090209208 0.3317419 2.3483334 1.2165859e-38
0.11085191 0.33698046 2.3510001 1.2165859e-38
0.13255334 0.33924669 2.359 1.1983263e-38
0.15032856 0.33878648 2.3558002 1.1798515e-38
0.16400667 0.33924666 2.359 1.1981468e-38
0.24713333 0.33924666 2.359 1.1152427e-38
0.31345904 0.3380962 2.3509998 1.0782207e-38
0.65377998 0.33924666 2.359 1.0507047e-38
0.17046857 0.34315711 2.355 1.2073305e-38
0.23440222 0.34523779 2.359 1.1244264e-38
0.24730317 0.34371173 2.3536668 1.115135e-38
0.27062762 0.34218571 2.3483334 1.0692527e-38
0.28901544 0.34459257 2.3526001 1.0781128e-38
0.30639142 0.34218571 2.3483334 1.0782204e-38
0.61783332 0.34373999 2.359 1.0232621e-38
0.62794334 0.34711 2.359 1.013971e-38
0.64751905 0.34504801 2.3525999 1.0323376e-38
0.66854388 0.34630764 2.3590002 1.0690726e-38
0.68074 0.34823334 2.359 1.0782571e-38
0.73466003 0.35272667 2.359 1.0693955e-38
0.77172995 0.35385001 2.359 1.1150985e-38
0.79129046 0.34893367 2.3536668 1.0690732e-38
0.82452667 0.34823334 2.359 1.1613394e-38
0.87471998 0.34587142 2.3429999 1.2619983e-38
0.89113331 0.35040715 2.3509998 1.2891534e-38
0.90315998 0.34823334 2.359 1.2891177e-38
0.95430768 0.34884667 2.3429999 1.1427562e-38
0.97141522 0.34959048 2.3430002 1.0876556e-38
0.99255484 0.35355484 2.3525999 1.0785081e-38
1.0131772 0.35192919 2.3536668 1.0876908e-38
1.0280447 0.34963399 2.3483334 1.0875829e-38
1.0466654 0.35113177 2.3483334 1.0874756e-38
1.0695481 0.3520481 2.3469999 1.0689647e-38
1.091774 0.35494819 2.3567142 9.9538826e-39
1.1105794 0.35583672 2.3557999 9.4021396e-39
1.1260003 0.35341686 2.3536668 9.4014193e-39
1.1517314 0.35361403 2.352143 9.0326396e-39
1.1705602 0.35152435 2.3510001 8.4805462e-39
1.1894845 0.34928381 2.3510001 8.3876373e-39
1.2054574 0.34963399 2.3483334 8.1117707e-39
1.2703917 0.3499724 2.3526001 7.4671187e-39
1.2918742 0.35436761 2.355 7.6489933e-39
1.3113289 0.35261932 2.3483334 1.087908e-38
1.3313366 0.34907374 2.3525999 1.1707756e-38
1.348 0.35048002 2.359 1.1615556e-38
1.3715899 0.35665277 2.3494003 1.2728759e-38
1.3877074 0.35574594 2.3529999 1.3832226e-38
0.09277714 0.33263999 2.3759999 1.2257697e-38
0.10861714 0.33716571 2.3759999 1.2166578e-38
0.65849143 0.33716571 2.3759999 1.0506688e-38
0.12445714 0.3416914 2.3759999 1.2074381e-38
0.16971429 0.3416914 2.3759999 1.2072944e-38
0.25570285 0.3416914 2.3759999 1.1060232e-38
0.26475427 0.34169143 2.3759999 1.0784006e-38
0.29303998 0.34282285 2.3759999 1.0689292e-38
0.30435428 0.34282282 2.3759999 1.0872605e-38
0.57250285 0.35074288 2.3759999 1.069215e-38
0.58607996 0.34621713 2.3759999 9.9585447e-39
0.62907422 0.34621713 2.3759999 1.0232621e-38
0.64581943 0.34440681 2.3759999 1.0415212e-38
0.66527998 0.3416914 2.3759999 1.0598165e-38
0.68338287 0.34621713 2.3759999 1.0598892e-38
0.71506286 0.35526857 2.3759999 1.1977499e-38
0.72637719 0.35526857 2.3759999 1.160908e-38
0.75353146 0.35526857 2.3759999 1.0508849e-38
0.76891893 0.35255313 2.3759999 1.0967311e-38
0.78747422 0.35074285 2.3759999 1.0966594e-38
0.81236571 0.35074288 2.3759999 1.0876196e-38
0.83046854 0.35074285 2.3759999 1.1521557e-38
0.85083425 0.35074285 2.3759999 1.1981451e-38
0.89081144 0.34772572 2.3759999 1.2801856e-38
0.90966851 0.34847999 2.3759999 1.2891898e-38
0.92324567 0.35074285 2.3759999 1.2798987e-38
0.95492566 0.35979429 2.3759999 1.2617465e-38
0.96171427 0.35526857 2.3759999 1.1886375e-38
0.99791998 0.35074285 2.3759999 1.0876558e-38
1.0092342 0.35300571 2.3759999 1.0784722e-38
1.0273371 0.35074285 2.3759999 1.0783995e-38
1.0499656 0.35074285 2.3759999 1.0507055e-38
1.0703315 0.35074285 2.3759999 1.0597814e-38
1.0899428 0.35225141 2.3759999 1.0321227e-38
1.1080457 0.35376 2.3759999 9.6780118e-39
1.1276572 0.35526857 2.3759999 9.4021382e-39
1.1427429 0.35526857 2.3759999 9.4932562e-39
1.1676342 0.35074285 2.3759999 8.8482483e-39
1.188 0.35074285 2.3759999 8.4809063e-39
1.2355199 0.35526857 2.3759999 8.0210072e-39
1.2513599 0.35300571 2.3759999 8.0192121e-39
1.2626743 0.35074285 2.3759999 7.7440644e-39
1.2905829 0.35074288 2.3759999 7.5589542e-39
1.3101943 0.35526857 2.3759999 7.9245026e-39
1.33056 0.35074285 2.3759999 1.1985423e-38
1.3712914 0.35526857 2.3759999 1.2168015e-38
1.3916571 0.35268244 2.3759999 1.318759e-38
1.4041029 0.35074285 2.3759999 1.4108454e-38
0.077455238 0.33487999 2.392 1.1615561e-38
0.084289521 0.33487999 2.392 1.1982905e-38
0.10934857 0.33601904 2.392 1.2074384e-38
0.1366857 0.33943617 2.392 1.1982904e-38
0.1503543 0.33943617 2.392 1.1798157e-38
0.16402286 0.33943617 2.392 1.1797438e-38
0.29615238 0.33943617 2.392 1.0690371e-38
0.3111878 0.33852494 2.392 1.1057716e-38
0.65381336 0.33943617 2.392 1.0690718e-38
0.17769143 0.34399238 2.392 1.2071507e-38
0.19136 0.34854856 2.392 1.2256255e-38
0.27564952 0.34399238 2.392 1.0601048e-38
0.28248382 0.34399238 2.392 1.0599969e-38
0.55129904 0.35082668 2.392 1.0783278e-38
0.56952381 0.35082668 2.392 1.0784705e-38
0.58319235 0.34854856 2.392 1.0602827e-38
0.64242285 0.34399238 2.392 1.0231543e-38
0.67659426 0.34399238 2.392 1.0690002e-38
0.69709712 0.35082665 2.392 1.0598897e-38
0.71076566 0.35082668 2.392 1.0690729e-38
0.72899044 0.35158607 2.3920002 1.1057345e-38
0.74884254 0.35180303 2.392 1.0414857e-38
0.76543999 0.35310477 2.392 1.050777e-38
0.80720508 0.34702986 2.392 1.0873682e-38
0.83150476 0.34854859 2.392 1.1336807e-38
0.84972954 0.34854856 2.392 1.1796702e-38
0.87478852 0.34854856 2.392 1.2530311e-38
0.89301336 0.34854856 2.392 1.2894415e-38
0.91123807 0.34627047 2.392 1.2708231e-38
0.92946285 0.34968761 2.392 1.2616396e-38
0.94389075 0.3546235 2.3920002 1.2525994e-38
0.97046852 0.35082668 2.392 1.1336088e-38
0.99552763 0.34854856 2.392 1.1151348e-38
1.0076774 0.35158604 2.392 1.0876558e-38
1.0319772 0.34854856 2.392 1.0692878e-38
1.0486832 0.34854859 2.392 1.0506335e-38
1.0684266 0.34854859 2.392 1.0230828e-38
1.0866516 0.34854859 2.392 1.0414142e-38
1.1094323 0.35158604 2.3920002 9.9542385e-39
1.1299353 0.35310477 2.392 9.5854518e-39
1.1549942 0.35766095 2.392 9.4928961e-39
1.1709409 0.35082668 2.392 8.9408027e-39
1.1891657 0.34854856 2.392 8.4809077e-39
1.2073904 0.34854856 2.392 8.5720272e-39
1.2256153 0.35310477 2.392 8.2046838e-39
1.2962362 0.35310477 2.392 7.559313e-39
1.3076266 0.35310477 2.392 7.6500737e-39
1.3304076 0.35310477 2.392 9.8660212e-39
1.3472655 0.34763733 2.392 1.1708479e-38
1.3645791 0.35310477 2.392 1.1523001e-38
1.3949536 0.35158604 2.392 1.3095026e-38
1.4109005 0.34778923 2.3920002 1.4015899e-38
0.11471428 0.33496571 2.4089999 1.2074746e-38
0.1323038 0.33725998 2.4089999 1.1982545e-38
0.16518857 0.33725998 2.4089999 1.1889272e-38
0.19654381 0.33573049 2.4089999 1.2256973e-38
0.20419142 0.33725998 2.4089999 1.2165857e-38
0.30284572 0.33725998 2.4089999 1.1152422e-38
0.12159714 0.34184855 2.4089999 1.2074382e-38
0.17436571 0.34184855 2.4089999 1.1981107e-38
0.19144541 0.34388795 2.4090002 1.2071864e-38
0.20419142 0.34414285 2.4089999 1.2072584e-38
0.28907996 0.34184855 2.4089999 1.0324823e-38
0.54948139 0.34758428 2.4089999 1.0783279e-38
0.57127714 0.34949619 2.4089999 1.0969097e-38
0.58733714 0.34643713 2.4089999 1.0048228e-38
0.64469427 0.34337807 2.4089999 1.023154e-38
0.71122861 0.34414285 2.4090002 1.0138994e-38
0.72912401 0.34735486 2.4090002 1.0505254e-38
0.74870193 0.3510257 2.4089999 1.0505256e-38
0.77225655 0.350108 2.4090002 1.059853e-38
0.78693998 0.3510257 2.4089999 1.1058069e-38
0.81141233 0.34949619 2.4089999 1.0874398e-38
0.83129615 0.34796664 2.4089999 1.124461e-38
0.85117996 0.34949619 2.4089999 1.1704507e-38
0.86035711 0.3510257 2.4089999 1.1980732e-38
0.88788855 0.3510257 2.4089999 1.2712903e-38
0.90853715 0.34643713 2.4089999 1.2800428e-38
0.93147993 0.34643713 2.4089999 1.2342689e-38
0.94983423 0.3510257 2.4089999 1.2067898e-38
0.96589422 0.35561427 2.4089999 1.1885305e-38
1.0278399 0.3510257 2.4089999 1.0784001e-38
1.0507829 0.3510257 2.4089999 1.0506335e-38
1.0622543 0.3510257 2.4089999 1.0138993e-38
1.0851971 0.3510257 2.4089999 1.0323024e-38
1.10814 0.3510257 2.4089999 1.0321941e-38
1.1310829 0.35255525 2.4089999 9.7698417e-39
1.1425543 0.35332 2.4089999 9.4928947e-39
1.1677914 0.35561427 2.4089999 9.2170308e-39
1.2457972 0.35561427 2.4089999 7.9288172e-39
1.2939771 0.3510257 2.4089999 7.4681935e-39
1.3085077 0.35255525 2.4089999 7.5589556e-39
1.3283914 0.35561427 2.4089999 8.2010909e-39
1.3467456 0.3487314 2.4089999 1.2169097e-38
1.3696885 0.3510257 2.4089999 1.1338614e-38
1.4086914 0.3487314 2.4089999 1.3554927e-38
0.96589422 0.36020288 2.4089999 1.2435593e-38
1.2595628 0.36020285 2.4089999 8.1117651e-39
0.11783429 0.33501905 2.4260001 1.198327e-38
0.12938666 0.33964002 2.4260001 1.189071e-38
0.14556001 0.33964002 2.4260001 1.1982904e-38
0.16866477 0.33732954 2.4260001 1.2073663e-38
0.19022922 0.33809972 2.4260001 1.2073302e-38
0.29343051 0.33964002 2.4260001 1.0692885e-38
0.31422478 0.33964002 2.4260001 1.1427572e-38
0.60303432 0.33964002 2.4260001 9.4021494e-39
0.65617526 0.33964002 2.4260001 1.0230463e-38
0.66310668 0.33964002 2.4260001 1.0506686e-38
0.12938666 0.34426096 2.4260001 1.1890351e-38
0.27186605 0.34426099 2.4260001 1.0693606e-38
0.2841886 0.34426096 2.4260001 1.0417377e-38
0.55220389 0.34426099 2.4260001 1.059853e-38
0.56870729 0.34954208 2.4260004 1.0692876e-38
0.59841335 0.34426096 2.4260001 9.1273632e-39
0.60303432 0.34657145 2.4260001 9.4025095e-39
0.64462286 0.34426096 2.4260001 9.9560322e-39
0.73704195 0.34426096 2.4260001 1.0138631e-38
0.74859434 0.3477267 2.4260001 1.0321583e-38
0.76476765 0.34888193 2.4260001 1.0413782e-38
0.80635619 0.35196257 2.4260001 1.0874394e-38
0.82830572 0.34888193 2.4260001 1.1059503e-38
0.85256577 0.34888193 2.4260001 1.1520475e-38
0.87104958 0.35196257 2.4260001 1.2072207e-38
0.88491243 0.35119241 2.4260001 1.2529591e-38
0.91494858 0.34888193 2.4260001 1.2800787e-38
0.95114613 0.34888193 2.4260001 1.1976782e-38
0.97040004 0.3546581 2.4260001 1.1426848e-38
0.989654 0.35350287 2.4260001 1.0969108e-38
1.0119886 0.35350287 2.4260001 1.105987e-38
1.023541 0.35350287 2.4260001 1.0967674e-38
1.0420249 0.34888193 2.4260001 1.0691804e-38
1.076682 0.34888193 2.4260001 1.0047152e-38
1.0897747 0.34888193 2.4260001 1.0047156e-38
1.1044077 0.34888193 2.4260001 1.0230111e-38
1.1252019 0.34888193 2.4260001 9.9542329e-39
1.149847 0.35504317 2.4260001 9.5847316e-39
1.1667905 0.35812387 2.4260001 9.2170322e-39
1.1852744 0.35350287 2.4260001 8.9400866e-39
1.2361048 0.35350287 2.4260001 8.3876373e-39
1.2499677 0.35812384 2.4260001 8.0206527e-39
1.2715321 0.35812387 2.4260001 7.8362614e-39
1.2961771 0.35350287 2.4260001 7.4681963e-39
1.3493181 0.35350287 2.4260001 1.0142241e-38
1.3909066 0.35696861 2.4260001 1.1430082e-38
1.4047697 0.35581335 2.4260001 1.2998135e-38
0.11866 0.33271334 2.4430001 1.2075111e-38
0.13029334 0.33736667 2.4430001 1.1891429e-38
0.14192668 0.33736667 2.4430001 1.1983264e-38
0.17217334 0.33736667 2.4430001 1.216622e-38
0.19311334 0.33504 2.4430001 1.2257692e-38
0.20242001 0.33736667 2.4430001 1.2441723e-38
0.72359335 0.33736667 2.4430001 9.5883385e-39
0.15356001 0.34202 2.4430001 1.1798515e-38
0.16984667 0.34202 2.4430001 1.1981824e-38
0.18380667 0.34202 2.4430001 1.2165496e-38
0.25593334 0.34667334 2.4430001 1.115315e-38
0.26989335 0.34667334 2.4430001 1.0693248e-38
0.28618002 0.34202 2.4430001 1.0876917e-38
0.55607337 0.34202 2.4430001 1.0415217e-38
0.57003337 0.34551001 2.4430001 1.0415215e-38
0.59097338 0.34551001 2.4430001 9.9542428e-39
0.60725999 0.34434667 2.4430001 9.4017906e-39
0.71894002 0.34202 2.4430001 9.9556805e-39
0.73134893 0.34512222 2.4430003 9.9553218e-39
0.75151336 0.34667334 2.4430001 1.0230467e-38
0.76857561 0.34822446 2.4430003 1.0413783e-38
0.79184234 0.35132667 2.4430003 1.0965874e-38
0.80968004 0.35016334 2.4430001 1.0782197e-38
0.82829338 0.34900001 2.4430001 1.105986e-38
0.85078448 0.34822446 2.4430003 1.142756e-38
0.87250006 0.34822446 2.4430003 1.1977854e-38
0.88646001 0.35132667 2.4430003 1.2437395e-38
0.93066669 0.34667334 2.4430001 1.2343408e-38
0.94230002 0.34667334 2.4430001 1.2159737e-38
0.97301209 0.35132667 2.4430001 1.1427208e-38
0.98883337 0.35132667 2.4430003 1.0968753e-38
1.0121 0.35365334 2.4430001 1.0968751e-38
1.0283867 0.35132667 2.4430001 1.0967313e-38
1.0423467 0.35132667 2.4430001 1.0691805e-38
1.0749199 0.35132667 2.4430001 1.0414854e-38
1.10982 0.35132667 2.4430001 1.0046796e-38
1.12378 0.35132667 2.4430001 1.0138627e-38
1.1447201 0.35132667 2.4430001 9.7698417e-39
1.1726401 0.35598001 2.4430001 8.9404468e-39
1.1842734 0.35598001 2.4430001 8.9411656e-39
1.2517467 0.35598001 2.4430001 8.2039663e-39
1.2633801 0.35598001 2.4430001 7.7451462e-39
1.3168933 0.35132667 2.4430001 7.4681949e-39
1.3308535 0.35365334 2.4430001 7.5593158e-39
1.3471401 0.35598001 2.4430003 8.4758729e-39
1.3773868 0.35132667 2.4430001 1.152445e-38
1.3983268 0.35598001 2.4430001 1.1059137e-38
1.4099602 0.35365334 2.4430001 1.1890715e-38
1.4239202 0.35132667 2.4430001 1.3460551e-38
1.2726867 0.36063334 2.4430001 7.8366201e-39
0.13166858 0.33409148 2.46 1.207546e-38
0.14786142 0.3368043 2.4645 1.1983265e-38
0.16165714 0.33971429 2.46 1.1982547e-38
0.18723087 0.33739313 2.4635999 1.2350605e-38
0.20382857 0.33502859 2.46 1.2349887e-38
0.29513335 0.33896953 2.4660001 1.1060946e-38
0.30762985 0.33637524 2.47 1.1152783e-38
0.574 0.33971429 2.46 1.0691083e-38
0.71925718 0.33971429 2.46 1.0139349e-38
0.82702857 0.33971429 2.46 1.1147025e-38
0.87622857 0.33971429 2.46 1.2158289e-38
0.15339999 0.34219998 2.4779999 1.1983268e-38
0.25537142 0.34440002 2.46 1.1337546e-38
0.26808 0.34566 2.4689999 1.1153866e-38
0.28486857 0.34450668 2.4719999 1.115314e-38
0.57383811 0.34680194 2.4660001 1.0414858e-38
0.58699238 0.34372002 2.4720001 1.0414139e-38
0.61011285 0.34511 2.4734998 9.5858218e-39
0.71925718 0.34440002 2.46 1.0230468e-38
0.73565716 0.34440002 2.46 9.8638464e-39
0.74861491 0.34352002 2.4672 9.9560378e-39
0.76772857 0.34800285 2.4689999 1.023083e-38
0.78869718 0.35078856 2.4719999 1.0781485e-38
0.81445855 0.34854427 2.4645 1.0598526e-38
0.82925045 0.34565431 2.4689999 1.0965151e-38
0.84889525 0.34908575 2.46 1.1335365e-38
0.87119138 0.34624141 2.4689999 1.1700188e-38
0.88979441 0.34712327 2.465143 1.2434523e-38
0.91122055 0.35292572 2.4672 1.2892983e-38
0.92476147 0.34972429 2.4645 1.2709671e-38
0.95198101 0.34908575 2.46 1.2067901e-38
0.97072381 0.34908575 2.46 1.1610876e-38
0.98879999 0.34842858 2.4720001 1.1059506e-38
1.0102915 0.35334516 2.4635999 1.0785077e-38
1.03108 0.35036284 2.4689999 1.0784717e-38
1.04548 0.35163999 2.4779999 1.0875475e-38
1.09504 0.35163999 2.4779999 1.023118e-38
1.1114011 0.3501074 2.4672 9.7712878e-39
1.1324229 0.35078856 2.4720001 9.8624017e-39
1.1493199 0.35163999 2.4779999 9.8623974e-39
1.1672286 0.35463428 2.4660001 9.58437e-39
1.1892537 0.35532457 2.4707999 8.9408041e-39
1.2061752 0.35549712 2.4720001 8.8482525e-39
1.25316 0.35635999 2.4779999 8.5720258e-39
1.2721715 0.35845715 2.46 7.7451448e-39
1.2885675 0.3577581 2.4660001 7.5607563e-39
1.3049963 0.35775813 2.4660001 7.4685579e-39
1.3263199 0.35635999 2.4779999 7.2852414e-39
1.3488668 0.35306096 2.4660001 7.6511513e-39
1.3692868 0.35428476 2.4689999 9.3092349e-39
1.3963429 0.35377145 2.46 1.115566e-38
1.4128983 0.35263526 2.4630001 1.0508487e-38
1.42898 0.35045999 2.4779999 1.0603216e-38
1.4509109 0.35249257 2.4707999 1.3922263e-38
0.15332572 0.33874285 2.4960001 1.2075823e-38
0.17115429 0.33993143 2.4960001 1.2351688e-38
0.29001144 0.33993143 2.4960001 1.1520843e-38
0.30189714 0.33517718 2.4960001 1.106023e-38
0.27099431 0.34468573 2.4960001 1.1429374e-38
0.28763428 0.34468573 2.4960001 1.152156e-38
0.60854864 0.34468573 2.4960001 9.862766e-39
0.63707429 0.35419428 2.4960001 9.584384e-39
0.64658284 0.35419428 2.4960001 9.5858176e-39
0.6656 0.34944001 2.4960001 1.0047506e-38
0.76781714 0.34706289 2.4960001 1.0047516e-38
0.78445715 0.34944001 2.4960001 1.0322309e-38
0.8106057 0.35419428 2.4960001 1.0966231e-38
0.82011431 0.34944001 2.4960001 1.0782197e-38
0.85101718 0.34944001 2.4960001 1.133321e-38
0.86765718 0.34944001 2.4960001 1.1519029e-38
0.93184006 0.35181713 2.4960001 1.261676e-38
0.94610286 0.34944001 2.4960001 1.206862e-38
0.96987426 0.34944001 2.4960001 1.16098e-38
0.9880991 0.34785527 2.4960001 1.1059862e-38
1.0118706 0.35102481 2.4960001 1.069252e-38
1.0269258 0.35419428 2.4960001 1.0509928e-38
1.0705068 0.35577905 2.4960001 1.0599968e-38
1.0887314 0.35776001 2.4960001 1.0599246e-38
1.1101258 0.35419428 2.4960001 9.8634792e-39
1.1338972 0.34944001 2.4960001 1.0046431e-38
1.1497449 0.35102475 2.4960001 9.9538756e-39
1.1695544 0.35419428 2.4960001 9.6783663e-39
1.2099657 0.35419428 2.4960001 8.6653004e-39
1.2337372 0.35894859 2.4960001 8.6649375e-39
1.2503772 0.35894859 2.4960001 8.5731034e-39
1.2717714 0.35894859 2.4960001 8.4798315e-39
1.2876191 0.35894859 2.4960001 8.0202939e-39
1.3074286 0.35894859 2.4960001 7.5611136e-39
1.3264457 0.35894859 2.4960001 7.2848841e-39
1.3525943 0.35419428 2.4960001 7.467839e-39
1.4144 0.35419428 2.4960001 1.0973431e-38
1.4302477 0.35102475 2.4960001 1.0416283e-38
1.4429257 0.34944001 2.4960001 1.1801405e-38
1.4666972 0.35419428 2.4960001 1.4107745e-38
1.3193144 0.36370286 2.4960001 7.7440658e-39
0.15562856 0.33759427 2.5139999 1.216766e-38
0.16041714 0.33759427 2.5139999 1.2167658e-38
0.19872572 0.33759427 2.5139999 1.2442443e-38
0.28970855 0.33759427 2.5139999 1.1611962e-38
0.17238857 0.34238285 2.5139999 1.2259857e-38
0.18436 0.34238285 2.5139999 1.2443521e-38
0.25618857 0.34717143 2.5139999 1.1613408e-38
0.2697562 0.34477717 2.5139999 1.1520852e-38
0.28332382 0.34397906 2.5139999 1.1612682e-38
0.31843999 0.34238285 2.5139999 1.1245693e-38
0.33041143 0.3459743 2.5139999 1.133681e-38
0.61293709 0.34717143 2.5139999 9.6780188e-39
0.63688004 0.35196 2.5139999 9.58474e-39
0.65268224 0.35291767 2.5139999 9.586535e-39
0.66609031 0.35004458 2.5139999 9.8634764e-39
0.75180566 0.34717143 2.5139999 9.6798139e-39
0.77574855 0.34717143 2.5139999 9.8634849e-39
0.79729712 0.35196 2.5139999 1.0505979e-38
0.8020857 0.35196 2.5139999 1.0689651e-38
0.82124001 0.35196 2.5139999 1.0965871e-38
0.86433715 0.35196 2.5139999 1.1518315e-38
0.8834914 0.34717143 2.5139999 1.18835e-38
0.92898285 0.35196 2.5139999 1.2801146e-38
0.9481371 0.34836859 2.5139999 1.188495e-38
0.96250284 0.35196 2.5139999 1.1884949e-38
0.99203241 0.34717143 2.5139999 1.0876548e-38
1.0103886 0.34717143 2.5139999 1.0599965e-38
1.0295428 0.35315716 2.5139999 1.0417373e-38
1.0486971 0.35196 2.5139999 1.0601403e-38
1.0678514 0.35435426 2.5139999 1.0691445e-38
1.0917943 0.35674855 2.5139999 1.0599607e-38
1.1061599 0.35196 2.5139999 1.0323374e-38
1.1253142 0.35196 2.5139999 9.7712836e-39
1.1492572 0.34836856 2.5139999 9.9542343e-39
1.16482 0.35076287 2.5139999 9.862396e-39
1.1923543 0.35674855 2.5139999 9.4928961e-39
1.2107105 0.35674855 2.5139999 8.8489686e-39
1.2330573 0.35674855 2.5139999 8.7567772e-39
1.2498171 0.35674855 2.5139999 8.6660165e-39
1.2689714 0.35674855 2.5139999 8.5727432e-39
1.2881258 0.35674855 2.5139999 8.3883506e-39
1.3096743 0.35674855 2.5139999 7.9284542e-39
1.3360114 0.35674855 2.5139999 7.1008544e-39
1.3479829 0.35674855 2.5139999 7.2852414e-39
1.3700103 0.35291773 2.5139999 7.284168e-39
1.3876597 0.35469633 2.5139999 7.9273724e-39
1.4150229 0.35674855 2.5139999 1.1524451e-38
1.4341772 0.35036382 2.5139999 1.0414503e-38
1.45812 0.35196 2.5139999 1.235496e-38
1.4629085 0.35196 2.5139999 1.2908847e-38
1.4868515 0.35674855 2.5139999 1.4292128e-38
1.3288286 0.36153713 2.5139999 7.5607521e-39
0.15513524 0.33358097 2.5320001 1.1983989e-38
0.16638857 0.34001145 2.5320001 1.2351326e-38
0.18085715 0.34001145 2.5320001 1.2719031e-38
0.25561142 0.3448343 2.5320001 1.1520494e-38
0.27008003 0.34121716 2.5320001 1.1428657e-38
0.33036572 0.3448343 2.5320001 1.1337167e-38
0.34001145 0.3448343 2.5320001 1.1336807e-38
0.63661718 0.34965715 2.5320001 9.4947009e-39
0.65108573 0.34965715 2.5320001 9.5861791e-39
0.67037714 0.34604001 2.5320001 9.7712836e-39
0.79335999 0.34965715 2.5320001 1.0138993e-38
0.81104386 0.35287237 2.5320001 1.0690367e-38
0.82953143 0.35206857 2.5320001 1.0782197e-38
0.84158862 0.34965715 2.5320001 1.0964429e-38
0.91875428 0.35448 2.5320001 1.2617478e-38
0.92518485 0.35287237 2.5320001 1.2708593e-38
0.94528002 0.35206857 2.5320001 1.2343409e-38
0.9766286 0.34965715 2.5320001 1.1426848e-38
0.9878819 0.34965715 2.5320001 1.1060578e-38
1.0079771 0.3448343 2.5320001 1.0508846e-38
1.0320914 0.35086286 2.5320001 1.0508487e-38
1.0441486 0.34965715 2.5320001 1.0325178e-38
1.0730858 0.35448 2.5320001 1.0599965e-38
1.0875543 0.35448 2.5320001 1.0508851e-38
1.1044343 0.35448 2.5320001 1.0415934e-38
1.1237257 0.35448 2.5320001 1.0046789e-38
1.1516294 0.34690124 2.5320001 9.6790852e-39
1.1719543 0.34724572 2.5320001 9.5868896e-39
1.1856191 0.35287237 2.5320001 9.4939779e-39
1.2081257 0.35448 2.5320001 9.1244765e-39
1.2346516 0.35448 2.5320001 8.4823511e-39
1.2563543 0.35448 2.5320001 8.573825e-39
1.2688937 0.35351545 2.5320001 8.5731034e-39
1.2890426 0.35233653 2.5319998 8.3887079e-39
1.3118172 0.35448 2.5320001 8.2957934e-39
1.3319125 0.35769528 2.5320001 7.560392e-39
1.3504 0.35448 2.5320001 7.1930472e-39
1.3648686 0.35448 2.5320001 7.2848855e-39
1.4106859 0.35769528 2.5320001 1.0234805e-38
1.4323885 0.35448 2.5320001 1.0973432e-38
1.4524839 0.34965715 2.5320001 1.0325549e-38
1.4709715 0.35206857 2.5320001 1.2999588e-38
1.4950857 0.35448 2.5320001 1.4292126e-38
1.5023201 0.35448 2.5320001 1.4476157e-38
0.16520762 0.33770382 2.5510001 1.2075102e-38
0.26967716 0.33770382 2.5510001 1.1520492e-38
1.168601 0.33770382 2.5510001 8.7603673e-39
0.17492571 0.34256288 2.5510001 1.2535003e-38
0.18950287 0.34256288 2.5510001 1.2626834e-38
0.25752956 0.34256288 2.5510001 1.1519416e-38
0.2648181 0.34256288 2.5510001 1.1336465e-38
0.33770382 0.34742191 2.5510001 1.133645e-38
0.65597147 0.3449924 2.5510001 9.4032284e-39
0.66714728 0.34450647 2.5510004 9.6794509e-39
0.81389058 0.35066128 2.5510001 1.0505975e-38
0.83575618 0.35228097 2.5510001 1.087403e-38
0.86734003 0.35228097 2.5510001 1.1239935e-38
0.88677621 0.35228097 2.5510001 1.1700186e-38
0.93050766 0.35228097 2.5510001 1.2616759e-38
0.94508481 0.35228097 2.5510001 1.2435242e-38
0.9766686 0.35228097 2.5510001 1.1519045e-38
0.99367523 0.34742194 2.5510001 1.0784711e-38
1.0033934 0.34742191 2.5510001 1.0693234e-38
1.0325477 0.34985143 2.5510001 1.0599964e-38
1.0500402 0.34742194 2.5510004 1.0140784e-38
1.066561 0.35228097 2.5510001 1.0325175e-38
1.0884267 0.35714 2.5510001 1.0508493e-38
1.1030039 0.35714 2.5510001 1.0599967e-38
1.1297286 0.35228097 2.5510001 1.0047506e-38
1.1520803 0.34742194 2.5510004 9.5876056e-39
1.1718404 0.34256288 2.5510001 8.7600086e-39
1.1904668 0.34863669 2.5510001 9.1273505e-39
1.2113608 0.35519639 2.5510004 9.3088677e-39
1.2289921 0.35366929 2.5510004 8.4819867e-39
1.2487752 0.35471049 2.5510001 8.3905128e-39
1.2682115 0.35349575 2.5510001 8.4812679e-39
1.2920208 0.34742191 2.5510004 8.2053928e-39
1.311457 0.35033736 2.5510004 8.388345e-39
1.3305693 0.35390067 2.5510001 8.2039565e-39
1.3516252 0.35552034 2.5510001 7.2848855e-39
1.3702514 0.35349575 2.5510001 7.1937661e-39
1.3872583 0.35228097 2.5510001 6.9164687e-39
1.4358486 0.35714 2.5510001 1.1431897e-38
1.4504257 0.35228097 2.5510001 1.0606449e-38
1.469862 0.34985143 2.5510001 1.1523383e-38
1.4965868 0.35714 2.5510001 1.3923705e-38
1.5119737 0.35066128 2.5510001 1.4476517e-38
-1.5640285 -1.1724095 2.5699999 1.1798869e-38
-1.5640285 -1.1528286 2.5699999 1.1338974e-38
0.16888571 0.33532381 2.5699999 1.1891792e-38
1.1944381 0.32553333 2.5699999 7.8337461e-39
0.17378095 0.34021905 2.5699999 1.2167299e-38
0.18846667 0.34021908 2.5700002 1.262612e-38
0.26679048 0.34021905 2.5699999 1.1520852e-38
0.32798094 0.34511429 2.5699999 1.0969827e-38
0.34511429 0.34511429 2.5699999 1.1337169e-38
0.65188253 0.34837779 2.5700002 9.3110327e-39
0.77100003 0.35000953 2.5700002 9.8634807e-39
0.78813332 0.3500095 2.5699999 9.9553175e-39
0.80893809 0.3500095 2.5699999 1.0414138e-38
0.83219045 0.35490474 2.5699999 1.0691081e-38
0.84687614 0.3500095 2.5699999 1.142432e-38
0.88848567 0.35490474 2.5699999 1.1608351e-38
0.90317142 0.3500095 2.5699999 1.1973898e-38
0.95212376 0.35490474 2.5699999 1.2435242e-38
0.96191424 0.3500095 2.5699999 1.1610884e-38
0.99128568 0.3500095 2.5699999 1.1060583e-38
1.0076032 0.34511432 2.5700002 1.0416649e-38
1.028 0.34511429 2.5699999 1.0232262e-38
1.047581 0.3475619 2.5699999 1.0232618e-38
1.0720571 0.3500095 2.5699999 1.023226e-38
1.0904143 0.35368094 2.5699999 1.041593e-38
1.111219 0.35490474 2.5699999 1.0507408e-38
1.1316159 0.35490474 2.5700002 1.0047506e-38
1.1503808 0.35123333 2.5699999 9.6794439e-39
1.1675143 0.34021908 2.5700002 8.9447501e-39
1.1895428 0.34266669 2.5699999 8.3004695e-39
1.2091238 0.34817377 2.5699999 8.7582135e-39
1.2252781 0.34707236 2.5699999 8.0217331e-39
1.2491016 0.35164127 2.5700002 8.114286e-39
1.2678666 0.35368094 2.5699999 8.2057628e-39
1.2874477 0.3487857 2.5699999 8.1132014e-39
1.3127397 0.34511432 2.5700002 8.2043152e-39
1.3327285 0.3487857 2.5699999 8.4798217e-39
1.3525542 0.35588381 2.5699999 7.6522275e-39
1.3691981 0.35196763 2.5699999 7.1934115e-39
1.3902476 0.3500095 2.5699999 6.8264283e-39
1.4122761 0.35490474 2.5700002 7.2848827e-39
1.4294095 0.35735238 2.5699999 9.954247e-39
1.4498062 0.35653648 2.5700002 1.1156387e-38
1.4759142 0.3500095 2.5699999 1.0507442e-38
1.4808095 0.3500095 2.5699999 1.1155319e-38
1.5150762 0.35245711 2.5699999 1.4292486e-38
1.5248666 0.34511429 2.5699999 1.4476515e-38
-1.567625 -1.1689382 2.5890002 1.1522645e-38
-1.5558658 -1.1662829 2.589 1.1522646e-38
-1.5755914 -1.1498448 2.5890002 1.115566e-38
-1.5731257 -1.1366943 2.589 9.2206518e-39
0.17506571 0.33780286 2.589 1.1891794e-38
0.18739429 0.33780286 2.589 1.2534643e-38
1.1761458 0.33122763 2.5890002 8.02064e-39
1.1810771 0.33780286 2.589 8.391219e-39
0.17999715 0.34273428 2.589 1.2443167e-38
0.19972286 0.3452 2.589 1.2442803e-38
0.20465429 0.34273428 2.589 1.2442446e-38
0.25396857 0.34766573 2.5890002 1.1704525e-38
0.26383144 0.34273428 2.589 1.1521211e-38
0.33780286 0.34766573 2.589 1.1244975e-38
0.34273428 0.34766573 2.589 1.1429004e-38
0.63368857 0.35259715 2.589 9.5868994e-39
0.65094858 0.35013145 2.589 9.310674e-39
0.67807144 0.34273428 2.589 9.7730815e-39
0.68300283 0.34273428 2.589 9.7730815e-39
0.76930285 0.34766573 2.589 9.9556763e-39
0.78163141 0.34766573 2.589 1.0046433e-38
0.81368572 0.34766573 2.589 1.050561e-38
0.82848001 0.35013142 2.589 1.0781836e-38
0.8432743 0.35259715 2.589 1.1150251e-38
0.87532854 0.35259715 2.589 1.1881704e-38
0.88847911 0.35259718 2.5890002 1.1790225e-38
0.90984857 0.35259715 2.589 1.1974257e-38
0.93697143 0.35506284 2.589 1.234197e-38
0.9525876 0.35259718 2.5890002 1.2068258e-38
0.97231334 0.35259718 2.5890002 1.1519405e-38
0.99121714 0.35136428 2.589 1.1060585e-38
1.0109429 0.34766573 2.589 1.0417368e-38
1.0282029 0.34766573 2.589 1.0233338e-38
1.0508875 0.34569317 2.589 1.0231897e-38
1.0709419 0.34602189 2.5890002 9.8641995e-39
1.0923114 0.35259715 2.589 1.0324093e-38
1.1080921 0.35358343 2.589 1.0414851e-38
1.1292971 0.35259715 2.589 1.0231534e-38
1.149516 0.35062456 2.589 9.6794411e-39
1.1638172 0.34766573 2.589 9.4039318e-39
1.2155972 0.34766573 2.589 8.4823497e-39
1.2244738 0.34470686 2.589 8.2054069e-39
1.2501172 0.35259718 2.5890002 7.9309724e-39
1.2723086 0.35259715 2.589 8.114286e-39
1.3043629 0.35259715 2.589 8.296871e-39
1.3351843 0.34766573 2.589 8.2957906e-39
1.3536772 0.35095334 2.5890002 8.2028803e-39
1.3701153 0.35095334 2.5890002 7.285247e-39
1.3906629 0.35259715 2.589 6.9182596e-39
1.4103886 0.35259715 2.589 6.8249905e-39
1.4301143 0.35382998 2.589 7.8369803e-39
1.4523057 0.35752857 2.5890002 1.1338629e-38
1.4769628 0.35259715 2.589 1.0880519e-38
1.4818943 0.34766573 2.589 1.1430092e-38
1.5127157 0.3562957 2.589 1.3095388e-38
1.5262773 0.34930953 2.5890002 1.4476512e-38
1.4424429 0.36245999 2.589 1.0052594e-38
-1.5827934 -1.1802619 2.609 1.1706316e-38
-1.5778238 -1.1802619 2.609 1.1706316e-38
-1.5827934 -1.1628685 2.609 1.0972708e-38
-1.5738481 -1.1643595 2.609 1.1155304e-38
-1.5847811 -1.1484569 2.609 9.4972261e-39
-1.5758361 -1.1514387 2.609 1.1340774e-38
-1.5861063 -1.1338797 2.609 9.6718839e-39
-1.5861063 -1.1098603 2.6090002 1.1711002e-38
-1.5877628 -1.09578 2.609 1.1337913e-38
-1.4038905 0.31059524 2.609 9.5858176e-39
1.2332702 0.33544287 2.609 7.6522289e-39
1.2448657 0.33544284 2.609 7.6518673e-39
0.18884191 0.34041238 2.609 1.2259136e-38
0.25096095 0.34662426 2.609 1.1796362e-38
0.26338476 0.34041238 2.609 1.1522286e-38
0.34786665 0.34538189 2.609 1.1154217e-38
0.6311295 0.35407856 2.609 9.7712906e-39
0.64852285 0.35366446 2.609 9.494345e-39
0.67088568 0.34538189 2.609 9.4961401e-39
0.77773046 0.34289712 2.609 1.0047149e-38
0.79065126 0.3473697 2.609 1.0047509e-38
0.80754757 0.35035142 2.609 1.0230472e-38
0.83736473 0.35035142 2.609 1.1058057e-38
0.84481907 0.35035142 2.609 1.1148455e-38
0.87215149 0.35532099 2.609 1.1698391e-38
0.89699906 0.35532096 2.609 1.1882418e-38
0.90942287 0.35283619 2.609 1.1972463e-38
0.93344223 0.35366446 2.609 1.197498e-38
0.94768822 0.35233924 2.609 1.1975703e-38
0.96905714 0.35035142 2.609 1.1335012e-38
0.99141997 0.35035142 2.609 1.096839e-38
1.001359 0.35035142 2.609 1.0876911e-38
1.0361457 0.34538189 2.609 1.0140066e-38
1.0485696 0.34538189 2.609 1.0231542e-38
1.0684476 0.34289712 2.609 9.7723598e-39
1.0883257 0.34786665 2.609 9.8642009e-39
1.1085589 0.34751168 2.6090002 1.0230458e-38
1.1305666 0.35035142 2.609 1.0507038e-38
1.1479599 0.35035142 2.609 9.6801558e-39
1.1678381 0.34538189 2.609 9.128061e-39
1.2349267 0.34041238 2.609 7.9288172e-39
1.2506635 0.34538192 2.6090002 7.6540267e-39
1.2721981 0.35035142 2.609 7.6543911e-39
1.2945609 0.35200796 2.609 8.1128469e-39
1.3343171 0.34538189 2.609 8.112121e-39
1.3525388 0.34538192 2.609 8.2025202e-39
1.3715886 0.35035142 2.609 7.7433455e-39
1.3918216 0.34751168 2.6090002 6.7313572e-39
1.4078661 0.34836361 2.609 6.3643711e-39
1.4337076 0.35200796 2.609 7.2827261e-39
1.4502728 0.35366446 2.609 9.4939919e-39
1.4704821 0.35432705 2.609 1.1340413e-38
1.4908571 0.35283619 2.609 1.1154951e-38
1.5157048 0.35532096 2.609 1.2725149e-38
1.5314417 0.35035142 2.609 1.3923341e-38
1.5430372 0.34538189 2.609 1.4383596e-38
1.4535857 0.36029047 2.609 9.9654237e-39
-1.5786518 -1.1717827 2.6289999 1.1338615e-38
-1.5874152 -1.1492486 2.6289999 1.1246062e-38
-1.5799037 -1.1592637 2.6289999 1.1615199e-38
-1.5959281 -1.1352273 2.6289999 1.2162627e-38
-1.5949266 -1.1116915 2.6289999 1.1804279e-38
-1.4271715 0.31297618 2.6289999 9.4925485e-39
-1.41966 0.31297618 2.6289999 9.5851015e-39
1.3996295 0.33801427 2.6289999 6.5476848e-39
1.4046371 0.33801427 2.6289999 6.4551304e-39
0.20531237 0.3430219 2.6289999 1.2351324e-38
0.25288475 0.34302193 2.6290002 1.1705958e-38
0.33300668 0.34802955 2.6290002 1.0877633e-38
0.34552571 0.34552571 2.6289999 1.0969467e-38
0.63596761 0.35303715 2.6289999 9.5876196e-39
0.65099049 0.35303715 2.6289999 9.4943464e-39
0.66350949 0.34802952 2.6289999 9.4947051e-39
0.77868474 0.34802952 2.6289999 1.004751e-38
0.7912038 0.3430219 2.6289999 1.0230097e-38
0.8107335 0.34702799 2.6289999 1.0415215e-38
0.8237533 0.34802952 2.6289999 1.0965142e-38
0.85212988 0.34969875 2.6290002 1.1607269e-38
0.86631811 0.35303715 2.6289999 1.2066805e-38
0.89385998 0.35303715 2.6289999 1.234088e-38
0.91639429 0.35303715 2.6289999 1.2247969e-38
0.93392092 0.35303712 2.6289999 1.179059e-38
0.97898948 0.34802952 2.6289999 1.1150264e-38
0.98900473 0.35303715 2.6289999 1.096839e-38
1.0040276 0.34802952 2.6289999 1.0876552e-38
1.026562 0.34802952 2.6289999 1.0324093e-38
1.0591114 0.3430219 2.6289999 1.0230821e-38
1.064119 0.3430219 2.6289999 1.0047508e-38
1.135895 0.34802955 2.6290002 9.8631093e-39
1.1467447 0.34802952 2.6289999 9.5890377e-39
1.1709483 0.34469113 2.6290002 8.943311e-39
1.1868057 0.3430219 2.6289999 8.7589197e-39
1.274439 0.34802952 2.6289999 7.7462224e-39
1.2969732 0.35303715 2.6289999 8.113207e-39
1.3595686 0.34802952 2.6289999 8.2028789e-39
1.3770952 0.34802952 2.6289999 7.6511513e-39
1.3921181 0.34552571 2.6289999 6.9135946e-39
1.407141 0.3430219 2.6289999 6.2703818e-39
1.432179 0.35178524 2.6289999 6.639879e-39
1.451375 0.34969875 2.6290002 7.5593144e-39
1.471167 0.35160643 2.6290002 1.170956e-38
1.4872627 0.35303715 2.6289999 1.1249655e-38
1.5198123 0.35804474 2.6289999 1.1895747e-38
1.5398428 0.35303715 2.6289999 1.3463802e-38
1.5448505 0.34802952 2.6289999 1.4566542e-38
-1.5893999 -1.1907885 2.6489999 1.1522286e-38
-1.5919228 -1.1630371 2.6489999 1.1891424e-38
-1.6020142 -1.1428542 2.6489999 1.2072245e-38
-1.5936048 -1.1504228 2.6490002 1.1982904e-38
-1.604537 -1.1378086 2.6489999 1.3085293e-38
-1.6121057 -1.04194 2.6489999 1.2169463e-38
-1.6121057 -1.0268028 2.6489999 1.1704529e-38
-1.6121057 -0.90570569 2.6489999 1.1798155e-38
-1.6020142 0.31535715 2.6489999 9.4925513e-39
0.24976285 0.33554 2.6489999 1.1430085e-38
0.21444285 0.34563142 2.6489999 1.2259488e-38
0.24471714 0.34815428 2.6489999 1.1798155e-38
0.32797143 0.34563142 2.6489999 1.0875838e-38
0.34310856 0.34563142 2.6489999 1.0785436e-38
0.6635114 0.35067713 2.6489999 9.5865406e-39
0.68873996 0.34563142 2.6489999 9.6812446e-39
0.78460854 0.34563142 2.6489999 1.0047147e-38
0.81992853 0.34563142 2.6489999 1.0782186e-38
0.83506566 0.35067713 2.6489999 1.1149531e-38
0.84767997 0.34941569 2.6489999 1.1515076e-38
0.87038577 0.35067713 2.6489999 1.2524902e-38
0.88653201 0.3537046 2.6489999 1.2707501e-38
0.90822858 0.35320002 2.6490002 1.2157209e-38
0.92992508 0.35067713 2.6489999 1.16062e-38
0.94985569 0.34941569 2.6489999 1.1333569e-38
0.96961808 0.35235906 2.6489999 1.1426485e-38
0.98139143 0.35067713 2.6489999 1.1150978e-38
1.0116657 0.34899521 2.6489999 1.0784357e-38
1.02428 0.35067713 2.6489999 1.0509561e-38
1.170101 0.34664056 2.6489999 8.8521916e-39
1.1832199 0.34310856 2.6489999 8.5734537e-39
1.2765657 0.35067713 2.6489999 7.6547428e-39
1.2942257 0.35067713 2.6489999 7.9295374e-39
1.3345914 0.35572284 2.6489999 8.0210044e-39
1.4455971 0.35067713 2.6489999 6.5466072e-39
1.4708259 0.35067713 2.6489999 8.1135756e-39
1.5086685 0.35572284 2.6489999 1.1339694e-38
1.5465114 0.35572284 2.6489999 1.3646392e-38
-1.5920796 -1.210794 2.6690001 1.1615199e-38
-1.598858 -1.1819856 2.6689999 1.1431171e-38
-1.598858 -1.1692761 2.6689999 1.16152e-38
-1.6081785 -1.1447046 2.6690001 1.1798157e-38
-1.598858 -1.1540247 2.6689999 1.1799596e-38
-1.6090257 -1.1362314 2.6689999 1.1798157e-38
-1.6242771 -1.0803095 2.6689999 1.1256142e-38
-1.6242771 -1.070142 2.6690001 9.4007074e-39
-1.6242771 -1.0531958 2.6690001 1.1612684e-38
-1.6191933 -1.0472647 2.6689999 1.1800685e-38
-1.6242771 -1.0311661 2.6690001 1.1887838e-38
-1.6166513 -1.0294714 2.6689999 1.1888912e-38
-1.6242771 -1.0116781 2.6689999 1.2347732e-38
-1.6191933 -1.0193038 2.6689999 1.2347733e-38
-1.6242771 -0.99388474 2.6690001 1.2165859e-38
-1.6242771 -0.97609138 2.6689999 1.2165859e-38
-1.6191933 -0.97863328 2.6689999 1.2258053e-38
-1.6242771 -0.91254377 2.6689999 1.1613767e-38
-1.6242771 -0.89220852 2.6689999 1.1707397e-38
-1.6242771 0.31519619 2.6689999 9.5851015e-39
-1.6124151 0.31519619 2.6690001 9.4929087e-39
0.24656476 0.33807331 2.6689999 1.1614473e-38
