# .PCD v0.7 - Point Cloud Data file format
VERSION 0.7
FIELDS x y z rgb
SIZE 4 4 4 4
TYPE F F F F
COUNT 1 1 1 1
WIDTH 1035
HEIGHT 1
VIEWPOINT 0 0 0 1 0 0 0
POINTS 1035
DATA ascii
-1.5122498 -0.26296595 2.6315339 1.1705232e-38
-1.5202796 -0.26325491 2.6021638 1.1059863e-38
-1.5305701 -0.26286191 2.5802305 1.0506693e-38
-1.2766999 -1.4862967 3.1138787 1.3549879e-38
-1.2806873 -1.477423 3.098582 1.2996338e-38
-1.2918111 -1.4752307 3.0451415 1.327473e-38
-1.2816346 -1.4589834 3.1150036 1.3458754e-38
-1.2917428 -1.4567175 3.0796182 1.3366559e-38
-1.2983525 -1.4540102 3.0456901 1.3274011e-38
-1.3216439 -1.4527327 2.9783809 1.3273647e-38
-1.3253108 -1.4582708 2.9458947 9.6830691e-39
-1.3332621 -1.4568998 2.9144979 6.9121611e-39
-1.2479197 -1.4130136 3.2521811 1.6132069e-38
-1.2604123 -1.4340564 3.1703315 1.3919739e-38
-1.2794409 -1.412024 3.1578467 1.2814108e-38
-1.2791936 -1.4262116 3.115654 1.4566189e-38
-1.2869843 -1.4259356 3.088058 1.4566185e-38
-1.297415 -1.4259905 3.0672274 1.4104487e-38
-1.3064187 -1.4246224 3.0390635 1.4473268e-38
-1.3188637 -1.4253573 3.006047 1.4105205e-38
-1.3226008 -1.4209613 2.9837384 1.3642788e-38
-1.3325562 -1.4237524 2.9489155 1.2999215e-38
-1.3377526 -1.4258962 2.9157476 6.6380994e-39
-1.3496633 -1.41951 2.8888862 1.2076174e-38
-1.3429486 -1.4211881 2.861692 1.1615205e-38
-1.2518121 -1.4016441 3.2143719 1.3090693e-38
-1.2677727 -1.3937693 3.1885071 1.4658379e-38
-1.2766569 -1.3913491 3.1559901 1.46591e-38
-1.2901382 -1.3900394 3.1227446 1.41974e-38
-1.2918841 -1.3945402 3.1028273 1.3920095e-38
-1.2995166 -1.3950499 3.0717621 1.3550594e-38
-1.314304 -1.3932072 3.0410786 1.3550956e-38
-1.3151642 -1.391131 3.0089717 1.3460196e-38
-1.3271717 -1.392571 2.9839559 1.2907022e-38
-1.3331594 -1.3912627 2.9503179 1.106671e-38
-1.3442764 -1.3940754 2.9186897 9.8638464e-39
-1.3514625 -1.3896085 2.8898427 1.1709555e-38
-1.3552723 -1.3984429 2.8619759 1.2262368e-38
-1.3620136 -1.3955821 2.8419924 1.2907741e-38
-1.3714247 -1.3932338 2.8052855 1.2260934e-38
-1.3766472 -1.3828841 2.7931552 1.2998857e-38
-1.2538316 -1.3512033 3.2143869 1.2725507e-38
-1.2647244 -1.3568965 3.1798329 1.41974e-38
-1.279189 -1.3617057 3.1500387 1.4014086e-38
-1.2843586 -1.3565806 3.1219327 1.3921173e-38
-1.2950706 -1.3622582 3.0932302 1.3828977e-38
-1.3039678 -1.3654705 3.0727282 1.3368001e-38
-1.3116212 -1.364306 3.0404894 1.3367996e-38
-1.3154089 -1.3658676 3.0160282 1.3184324e-38
-1.3285294 -1.3636891 2.9854729 1.3090692e-38
-1.3360074 -1.3598074 2.9507957 1.1431904e-38
-1.343031 -1.3581954 2.918493 8.3872786e-39
-1.3538221 -1.360873 2.8914573 1.1708834e-38
-1.3611776 -1.3654417 2.862957 1.263079e-38
-1.3667363 -1.3685104 2.8372712 1.2722274e-38
-1.3699456 -1.3639395 2.8082199 1.2353489e-38
-1.3791469 -1.364538 2.7947466 1.2538241e-38
-1.375344 -1.3573138 2.7614698 1.2907017e-38
-1.3921633 -1.3556184 2.7245114 1.2814467e-38
-1.2604375 -1.3224108 3.216748 1.2356004e-38
-1.2646297 -1.3246593 3.1847978 1.0878727e-38
-1.284209 -1.34022 3.1579802 1.346235e-38
-1.2852615 -1.3292631 3.1273315 1.318469e-38
-1.2900937 -1.3392427 3.0872104 1.2906655e-38
-1.297985 -1.3381554 3.0739269 1.2630437e-38
-1.3032855 -1.3331078 3.0433791 1.327652e-38
-1.30773 -1.340518 3.0149186 1.2999577e-38
-1.3284041 -1.3336551 2.9861557 1.3090695e-38
-1.3383402 -1.3332504 2.9527373 1.0971637e-38
-1.3459948 -1.3266342 2.9202859 8.3840388e-39
-1.3487576 -1.335871 2.8932385 1.0969839e-38
-1.3517572 -1.3352625 2.8657525 1.1430455e-38
-1.3653316 -1.3372134 2.8355863 1.2076183e-38
-1.3738225 -1.3291981 2.8150139 1.1153508e-38
-1.3821771 -1.340085 2.7965348 1.1982908e-38
-1.3774003 -1.3317446 2.7630279 1.2536804e-38
-1.3941826 -1.3257999 2.7264202 1.2629717e-38
-1.4093995 -1.3198602 2.6901901 1.2720833e-38
-1.2590102 -1.2932637 3.2107019 1.3919735e-38
-1.2700013 -1.3011158 3.1918054 1.382862e-38
-1.2748164 -1.2983251 3.1570616 1.438179e-38
-1.2913876 -1.3002294 3.1261256 1.3091052e-38
-1.2954726 -1.303244 3.09952 1.2906299e-38
-1.3021717 -1.3045464 3.0732689 1.2815181e-38
-1.3108484 -1.3019022 3.047137 1.3275442e-38
-1.3188565 -1.3079484 3.0158727 1.3368358e-38
-1.3274083 -1.2969861 2.986788 1.3459839e-38
-1.3364261 -1.2994895 2.9583089 1.3091054e-38
-1.3453386 -1.3014045 2.9271219 1.0692887e-38
-1.3525125 -1.306324 2.8995092 1.189251e-38
-1.3620727 -1.3072165 2.8696671 1.2905948e-38
-1.3709983 -1.3099383 2.8379841 1.1524452e-38
-1.3760822 -1.3041451 2.8079212 1.1246785e-38
-1.3774269 -1.3084226 2.7692447 1.2446027e-38
-1.3831043 -1.3083789 2.7402537 1.401229e-38
-1.39377 -1.2992197 2.7246568 1.3091772e-38
-1.3998828 -1.3052508 2.6919007 1.3275808e-38
-1.4059442 -1.311743 2.6510859 1.364423e-38
-1.4247953 -1.3041325 2.633105 1.2632599e-38
-1.4285469 -1.2993158 2.6045172 1.3001377e-38
-1.2475259 -1.2823277 3.2709229 1.5397749e-38
-1.2546452 -1.264969 3.2494252 1.5581057e-38
-1.2614721 -1.2702497 3.2179518 1.4750213e-38
-1.2692777 -1.2719331 3.1934943 1.2262375e-38
-1.2772565 -1.2621912 3.1635592 1.3737142e-38
-1.2879819 -1.2668899 3.1312823 1.3460195e-38
-1.2958493 -1.2721622 3.102391 1.3275804e-38
-1.3051186 -1.2728136 3.071609 1.3644585e-38
-1.3090258 -1.2712649 3.0437715 1.3736423e-38
-1.3204992 -1.272687 3.0135179 1.3552033e-38
-1.3289614 -1.272024 2.9863851 1.3643871e-38
-1.3384825 -1.2738504 2.9538469 1.2721914e-38
-1.3452499 -1.2767737 2.9261639 1.0231194e-38
-1.3538254 -1.2738445 2.8974879 1.1063097e-38
-1.363483 -1.2777215 2.8714719 1.253824e-38
-1.3764383 -1.2782006 2.8434362 1.3091054e-38
-1.3769102 -1.2828101 2.8088913 1.1984347e-38
-1.3752215 -1.2797968 2.7768741 1.281627e-38
-1.3911414 -1.2734323 2.7546437 1.382826e-38
-1.4018461 -1.2726629 2.7250447 1.3092133e-38
-1.4044935 -1.2765254 2.6930184 1.3183969e-38
-1.415926 -1.2783893 2.6567242 1.2815546e-38
-1.4200083 -1.2823515 2.6331694 1.3276524e-38
-1.4344543 -1.2801552 2.6104043 1.2907743e-38
-1.4396203 -1.2760496 2.5876191 1.410557e-38
-1.2569219 -1.2403903 3.2422125 1.4473633e-38
-1.2639269 -1.2384301 3.2200148 1.3364401e-38
-1.2720817 -1.2434554 3.19363 1.3275448e-38
-1.2801536 -1.2331189 3.1591561 1.3459832e-38
-1.2915729 -1.2346172 3.1422501 1.3737142e-38
-1.2998111 -1.2324361 3.102457 1.3736063e-38
-1.3071796 -1.2381973 3.0770044 1.3090335e-38
-1.3149999 -1.2454675 3.0511363 1.3184327e-38
-1.3260597 -1.2470317 3.0183024 1.2353849e-38
-1.3314387 -1.2432545 2.9863691 1.2722274e-38
-1.3407848 -1.2449089 2.9604781 1.2170536e-38
-1.3499532 -1.245892 2.9266412 1.2814107e-38
-1.3540719 -1.2488496 2.8993695 1.1153501e-38
-1.3676656 -1.2550925 2.8683391 1.2814823e-38
-1.3673354 -1.2454938 2.8412006 1.2538599e-38
-1.3801764 -1.2567371 2.8020937 1.3829337e-38
-1.3795224 -1.2551996 2.7787311 1.3552749e-38
-1.3933542 -1.2562828 2.7482927 1.3461275e-38
-1.4019847 -1.2438002 2.7211788 1.1984706e-38
-1.4115514 -1.2465582 2.6910059 1.2353483e-38
-1.4161333 -1.2458473 2.6630881 1.0970913e-38
-1.4241773 -1.2512888 2.6365542 1.2538237e-38
-1.4344028 -1.2495115 2.6138289 1.2999578e-38
-1.4461311 -1.2467611 2.5802922 1.4474714e-38
-1.4494909 -1.2474557 2.5578909 1.4566189e-38
-1.4624496 -1.2436572 2.5255389 1.5765453e-38
-1.470096 -1.2423601 2.4951961 1.5674336e-38
-1.2491434 -1.2060978 3.2659812 1.4748423e-38
-1.2596134 -1.2072395 3.2402608 1.410557e-38
-1.2679735 -1.2046561 3.2167521 1.4473632e-38
-1.2763367 -1.2040663 3.1922717 1.3644587e-38
-1.2810717 -1.2091091 3.1620712 1.3274369e-38
-1.2899897 -1.2140089 3.1320753 1.2998496e-38
-1.2993251 -1.2109746 3.1033537 1.22613e-38
-1.3074822 -1.2114043 3.0735848 1.2997779e-38
-1.3165542 -1.2124261 3.0429857 1.2168377e-38
-1.3261797 -1.2119628 3.0180709 1.1983986e-38
-1.330762 -1.2088039 2.9899089 1.1523365e-38
-1.3414993 -1.2155389 2.957881 1.2168376e-38
-1.3536373 -1.2145982 2.9290056 1.1799593e-38
-1.3609501 -1.2202021 2.9013653 1.19847e-38
-1.3676432 -1.2259665 2.8703465 1.253824e-38
-1.3814576 -1.227706 2.8387818 1.1799596e-38
-1.3752023 -1.2163031 2.809644 1.1708479e-38
-1.3806705 -1.2175535 2.7790968 1.12475e-38
-1.3964933 -1.218205 2.7541111 1.0050398e-38
-1.4010242 -1.2157542 2.7267141 1.04163e-38
-1.4116374 -1.2153803 2.6985452 9.4947065e-39
-1.4198251 -1.2171952 2.6673777 8.204688e-39
-1.4281605 -1.2158382 2.6399834 1.0969111e-38
-1.4399965 -1.2096747 2.6082208 1.3828984e-38
-1.449165 -1.2099841 2.5851526 1.3828623e-38
-1.4561206 -1.2166811 2.5515492 1.4843857e-38
-1.4648995 -1.213203 2.5263164 1.5398472e-38
-1.4743463 -1.2151376 2.4983916 1.585801e-38
-1.4658943 -1.2173893 2.4578099 1.3089977e-38
-1.2529305 -1.1773757 3.2647214 1.4934972e-38
-1.2619687 -1.1846788 3.2427237 1.5026088e-38
-1.2684218 -1.175537 3.2197804 1.3738229e-38
-1.2784969 -1.1755775 3.1915159 1.3459119e-38
-1.2845316 -1.1733352 3.161329 1.3643871e-38
-1.2961851 -1.1771148 3.1319802 1.3552392e-38
-1.3061358 -1.1828923 3.1026003 1.2999937e-38
-1.3109862 -1.184947 3.0752642 1.2906302e-38
-1.3190286 -1.1795865 3.043539 1.3920814e-38
-1.3259407 -1.1817001 3.0162792 1.3089616e-38
-1.335364 -1.1811681 2.9896829 1.2814107e-38
-1.3453848 -1.181064 2.9597819 1.2998498e-38
-1.3534091 -1.184141 2.9274817 1.2536801e-38
-1.360075 -1.1867751 2.8999281 1.2169099e-38
-1.3659465 -1.1882484 2.8736687 1.3091772e-38
-1.3734775 -1.1921332 2.8454976 1.3276165e-38
-1.3792425 -1.1878649 2.814477 1.3276164e-38
-1.3859204 -1.1895895 2.7811205 1.2999581e-38
-1.3979548 -1.1855648 2.7520673 1.2906665e-38
-1.406011 -1.1832036 2.7256334 1.2907022e-38
-1.4107763 -1.1833913 2.6982555 1.2722993e-38
-1.423349 -1.1881766 2.6681323 1.2722994e-38
-1.4309546 -1.1861581 2.6417282 1.3368005e-38
-1.44411 -1.1853528 2.6107392 1.4199207e-38
-1.450206 -1.1802104 2.586699 1.4659105e-38
-1.4598417 -1.1901219 2.5537572 1.5766172e-38
-1.4673907 -1.1848768 2.5282979 1.6594492e-38
-1.4766066 -1.1840694 2.4993606 1.641154e-38
-1.4722836 -1.1875972 2.4613137 1.4381435e-38
-1.2450764 -1.1469587 3.29705 1.4933531e-38
-1.2570344 -1.1474452 3.2697752 1.5116126e-38
-1.261404 -1.1485418 3.2472353 1.4196685e-38
-1.2750441 -1.1480219 3.2195854 1.4013014e-38
-1.2789189 -1.1459758 3.192584 1.3275448e-38
-1.289166 -1.1438869 3.1633115 1.3459482e-38
-1.298225 -1.1477357 3.1338921 1.3644234e-38
-1.3082435 -1.1538367 3.1015403 1.3368005e-38
-1.3099729 -1.1538314 3.072727 1.3092141e-38
-1.321288 -1.1494501 3.0508308 1.3644232e-38
-1.3275607 -1.1541971 3.0170188 1.345912e-38
-1.3356642 -1.1526223 2.9877448 1.3091054e-38
-1.3462771 -1.1509725 2.9614627 1.2998858e-38
-1.3523592 -1.1525294 2.9324803 1.2906304e-38
-1.3602209 -1.1595123 2.9005461 1.2260933e-38
-1.3691803 -1.1556963 2.8712111 1.2998499e-38
-1.3788987 -1.158424 2.8467619 1.3551674e-38
-1.379854 -1.1552936 2.8116844 1.3738232e-38
-1.3870395 -1.158482 2.7811525 1.3645676e-38
-1.3984356 -1.1556787 2.7507243 1.4012653e-38
-1.4115447 -1.1518251 2.7265353 1.3644232e-38
-1.4220791 -1.1592352 2.6943421 1.428996e-38
-1.4295481 -1.1564081 2.667623 1.4013015e-38
-1.4336678 -1.1575654 2.6427636 1.4198483e-38
-1.4454226 -1.154338 2.613503 1.4106293e-38
-1.4549936 -1.1590588 2.58389 1.4752018e-38
-1.4627302 -1.1619215 2.5545957 1.5765454e-38
-1.4709859 -1.1555066 2.5298665 1.6042404e-38
-1.4769261 -1.1654034 2.5036726 1.5211927e-38
-1.4703888 -1.1625223 2.4713683 1.4473639e-38
-1.2492824 -1.117326 3.2988546 1.4841338e-38
-1.2569644 -1.1185851 3.2709506 1.474878e-38
-1.2664423 -1.1212904 3.2420032 1.4105205e-38
-1.2750492 -1.1224989 3.2166824 1.4011569e-38
-1.2773869 -1.1181639 3.1961181 1.2905943e-38
-1.2905093 -1.1133054 3.1643794 1.3643151e-38
-1.2977647 -1.1134673 3.1338391 1.4012654e-38
-1.3058977 -1.1229529 3.1020336 1.3459844e-38
-1.3115187 -1.1250755 3.0739925 1.3275089e-38
-1.3204025 -1.1205947 3.042984 1.3552036e-38
-1.3311502 -1.1251349 3.0192223 1.3367283e-38
-1.3388181 -1.1212052 2.9897988 1.318289e-38
-1.3487945 -1.1203775 2.9585519 1.3275446e-38
-1.3566875 -1.1236831 2.9285364 1.2537878e-38
-1.3640747 -1.1268821 2.9020634 1.2537522e-38
-1.3721474 -1.130748 2.8703504 1.2998499e-38
-1.3787221 -1.1306267 2.8453026 1.3368003e-38
-1.3846699 -1.1288773 2.815763 1.3553481e-38
-1.3952402 -1.132014 2.7855017 1.4105934e-38
-1.4021807 -1.1249167 2.755641 1.4197044e-38
-1.4107958 -1.1231166 2.7268114 1.3827903e-38
-1.4204189 -1.1293049 2.6980999 1.4935329e-38
-1.427327 -1.1246741 2.6712258 1.4013373e-38
-1.4357332 -1.1252563 2.642374 1.4197405e-38
-1.446918 -1.1286459 2.6187863 1.4750942e-38
-1.4564314 -1.1210836 2.5885465 1.4750945e-38
-1.4641886 -1.1246625 2.5610793 1.4751311e-38
-1.478049 -1.1359171 2.5070848 1.7148396e-38
-1.2340716 -1.0827768 3.3528376 1.4841329e-38
-1.2414838 -1.0876861 3.3281047 1.4750216e-38
-1.2534338 -1.0876232 3.3008094 1.4657665e-38
-1.2564929 -1.0865809 3.2781038 1.456475e-38
-1.2684833 -1.0918344 3.239572 1.410521e-38
-1.2763586 -1.0908813 3.2187195 1.3736424e-38
-1.2842268 -1.0839907 3.193171 1.3275808e-38
-1.2908368 -1.0838335 3.1648061 1.3275087e-38
-1.3005512 -1.0849481 3.1351523 1.4012651e-38
-1.3053602 -1.0940115 3.1066422 1.3459119e-38
-1.3165318 -1.0916154 3.0766904 1.3275449e-38
-1.3254468 -1.0878404 3.0453506 1.3366926e-38
-1.3326654 -1.091813 3.0173948 1.3183253e-38
-1.3422834 -1.0947664 2.9874203 1.2998501e-38
-1.3516055 -1.0937915 2.9594131 1.3367643e-38
-1.3580323 -1.0913727 2.9335384 1.2722271e-38
-1.3662983 -1.0977662 2.8995187 1.2721554e-38
-1.3712833 -1.0954937 2.8737075 1.3092135e-38
-1.385131 -1.0992756 2.8458018 1.3460198e-38
-1.3905975 -1.0999628 2.8122392 1.373679e-38
-1.3968102 -1.0957352 2.785665 1.3921179e-38
-1.4051758 -1.0992396 2.7570026 1.4013374e-38
-1.4150202 -1.0946311 2.7288413 1.4381439e-38
-1.4222847 -1.0999192 2.7016394 1.4658742e-38
-1.4285294 -1.0903095 2.6678934 1.4935336e-38
-1.4398111 -1.0983013 2.6421871 1.4381801e-38
-1.4521966 -1.0925734 2.6096699 1.4566552e-38
-1.4642274 -1.0821683 2.5729561 1.5304121e-38
-1.4650525 -1.0935699 2.5624835 1.6225713e-38
-1.4785419 -1.0925338 2.5139477 1.5028255e-38
-1.4724011 -1.0978718 2.4661717 1.2906315e-38
-1.2286769 -1.0564303 3.3790908 1.4565825e-38
-1.2484106 -1.0640014 3.3256822 1.3830781e-38
-1.2505184 -1.0628655 3.3027396 1.410593e-38
-1.2590203 -1.0563337 3.2770119 1.4381078e-38
-1.27407 -1.0643293 3.2444408 1.3921176e-38
-1.2809305 -1.0554342 3.2181234 1.22649e-38
-1.2879686 -1.058557 3.1931725 1.2905586e-38
-1.2975471 -1.0548697 3.1556716 1.3736067e-38
-1.3002476 -1.0598642 3.1293874 1.3736063e-38
-1.3154615 -1.0640724 3.1023831 1.3275446e-38
-1.320135 -1.0606381 3.0700567 1.3459836e-38
-1.3269404 -1.0629194 3.0404279 1.3366924e-38
-1.336562 -1.0626806 3.0166013 1.3091056e-38
-1.3459922 -1.0641336 2.9881012 1.3274727e-38
-1.3535302 -1.0666425 2.9582593 1.3275086e-38
-1.3633053 -1.0638186 2.9296772 1.3367642e-38
-1.3683207 -1.0672296 2.9035714 1.2906304e-38
-1.3784245 -1.0676799 2.8706486 1.3368002e-38
-1.3877921 -1.0650779 2.8442075 1.3828264e-38
-1.3902324 -1.0690919 2.8191831 1.3828264e-38
-1.3970132 -1.0700704 2.7892036 1.3643155e-38
-1.4057721 -1.0679239 2.7611194 1.4012657e-38
-1.4123658 -1.0656983 2.7325006 1.4658748e-38
-1.4260861 -1.0688466 2.7011874 1.4473992e-38
-1.4324147 -1.0594614 2.6693237 1.4196691e-38
-1.4408494 -1.0644348 2.6411197 1.392046e-38
-1.4431791 -1.0643983 2.609884 1.2721192e-38
-1.4611723 -1.0737141 2.5705109 1.216801e-38
-1.4652297 -1.0733794 2.5689206 1.6410818e-38
-1.4521216 -1.0758773 2.516366 1.3090333e-38
-1.4720011 -1.072814 2.5074544 1.2906662e-38
-1.47673 -1.0764471 2.4662066 1.290595e-38
-1.2382526 -1.0290294 3.3580904 1.4565825e-38
-1.2484637 -1.0330782 3.3278596 1.4198121e-38
-1.2527144 -1.0325811 3.3081868 1.4197764e-38
-1.2643459 -1.0296159 3.2716687 1.4196685e-38
-1.2791414 -1.0316266 3.2406659 1.3831138e-38
-1.282213 -1.0283986 3.2187901 1.2630441e-38
-1.2864404 -1.0276532 3.1940951 1.2538241e-38
-1.2961122 -1.0289047 3.1648269 1.3275446e-38
-1.3035266 -1.0268422 3.1279187 1.3644229e-38
-1.3122315 -1.0348973 3.1067581 1.3090695e-38
-1.3220273 -1.0304315 3.0767064 1.3551673e-38
-1.329767 -1.0329537 3.0411127 1.3459119e-38
-1.3421553 -1.0328249 3.0164142 1.3275086e-38
-1.3510758 -1.0354799 2.9832296 1.3459835e-38
-1.3497511 -1.0398387 2.9547343 1.364423e-38
-1.3626173 -1.0323492 2.932241 1.2997782e-38
-1.3692715 -1.0380434 2.903276 1.2629718e-38
-1.3809222 -1.0383646 2.8724563 1.3091058e-38
-1.3889351 -1.0407645 2.8458405 1.3736429e-38
-1.3948138 -1.0388694 2.8154876 1.373607e-38
-1.3937733 -1.0345808 2.7859068 1.4012297e-38
-1.4026452 -1.0319308 2.7575042 1.3736429e-38
-1.413837 -1.030828 2.7316191 1.4658389e-38
-1.422049 -1.0351549 2.7055867 1.4105213e-38
-1.4291639 -1.0314741 2.6736023 1.355096e-38
-1.4409264 -1.0321929 2.6454916 1.3551321e-38
-1.4371698 -1.0228561 2.6113691 1.2075464e-38
-1.4631149 -1.0495625 2.5719826 1.2075816e-38
-1.4604661 -1.047465 2.5152073 1.2815544e-38
-1.4818006 -1.0452437 2.5055416 1.2906304e-38
-1.2262089 -0.99630159 3.4031541 1.4381439e-38
-1.2458824 -0.99916834 3.3283694 1.3831856e-38
-1.2508569 -0.994986 3.3075063 1.4197042e-38
-1.2654771 -0.99634373 3.2745526 1.4196684e-38
-1.2706546 -0.99646014 3.2437339 1.3553474e-38
-1.2803712 -0.99601263 3.2169542 1.1708125e-38
-1.2909229 -0.99895322 3.1912618 1.2260568e-38
-1.2998636 -0.99546999 3.1613002 1.3644229e-38
-1.311494 -0.99705637 3.1323559 1.3183252e-38
-1.3164688 -1.0045556 3.1068916 1.3275086e-38
-1.3238488 -1.0045195 3.0744007 1.364315e-38
-1.3322971 -1.0015894 3.0465105 1.3366564e-38
-1.340722 -0.99982721 3.0149403 1.3091056e-38
-1.3523332 -1.0031264 2.9899833 1.3460195e-38
-1.3581731 -1.0062426 2.959558 1.3459477e-38
-1.36536 -1.005881 2.9322119 1.3091417e-38
-1.3747313 -1.0057113 2.9047701 1.2998861e-38
-1.3810272 -1.0056289 2.8737419 1.3459842e-38
-1.3889184 -1.0073254 2.8511844 1.410557e-38
-1.3936104 -1.002679 2.819171 1.4196689e-38
-1.3988669 -1.0122901 2.7860696 1.4657669e-38
-1.4067775 -1.0061332 2.7621839 1.4197408e-38
-1.4177405 -0.99986798 2.7281497 1.4288526e-38
-1.4258646 -1.008364 2.7034078 1.4749506e-38
-1.4303346 -0.99694544 2.6705327 1.3920102e-38
-1.440412 -0.99959898 2.6442618 1.3274734e-38
-1.4347135 -1.0030532 2.612112 1.262828e-38
-1.4712729 -1.0152394 2.560082 1.5118654e-38
-1.459257 -1.013968 2.518955 1.3090332e-38
-1.2336603 -0.97315401 3.3793216 1.4289239e-38
-1.2408817 -0.98261976 3.3651378 1.4380356e-38
-1.25345 -0.96543872 3.3082337 1.4105208e-38
-1.2681826 -0.97199446 3.2733254 1.4012653e-38
-1.2737485 -0.96628463 3.2479355 1.3459837e-38
-1.2833918 -0.9687444 3.2153895 1.1799236e-38
-1.291816 -0.96910197 3.1897712 1.2352768e-38
-1.3025039 -0.96922207 3.1629119 1.3459119e-38
-1.3095281 -0.97046566 3.1314914 1.3459475e-38
-1.3173555 -0.9732008 3.1056461 1.3182889e-38
-1.3262663 -0.97318858 3.0747838 1.3552033e-38
-1.3393718 -0.97132093 3.0468345 1.3459476e-38
-1.3393294 -0.97415453 3.0201955 1.3183249e-38
-1.3513052 -0.9723444 2.9889202 1.2998858e-38
-1.35671 -0.97531968 2.9584231 1.3552033e-38
-1.3662677 -0.97870028 2.9343772 1.2906662e-38
-1.3704753 -0.97715646 2.9064651 1.216874e-38
-1.3814179 -0.97651619 2.8767805 1.3090698e-38
-1.3880507 -0.97912467 2.846318 1.4289604e-38
-1.3970534 -0.97219795 2.8175583 1.410485e-38
-1.3992485 -0.97862715 2.7857044 1.4750583e-38
-1.4095322 -0.97383219 2.7614717 1.4473635e-38
-1.420293 -0.96926785 2.7288759 1.4472917e-38
-1.4229425 -0.97400934 2.7049124 1.4381439e-38
-1.4336492 -0.96786606 2.6712763 1.3828267e-38
-1.4466102 -0.97538733 2.6453147 1.336693e-38
-1.4467098 -0.97084481 2.6100368 1.2444968e-38
-1.4601225 -0.97653109 2.5785778 1.1064549e-38
-1.4611255 -0.98618889 2.5207326 1.3089612e-38
-1.4805822 -0.98728073 2.5116215 1.3271846e-38
-1.4750338 -0.98821974 2.4753883 1.318073e-38
-1.2384845 -0.93151009 3.3811362 1.4104488e-38
-1.2455873 -0.94179797 3.3648307 1.2166939e-38
-1.2507652 -0.93337703 3.3392217 1.3089256e-38
-1.2576928 -0.93893254 3.3056238 1.3090335e-38
-1.2685262 -0.93604308 3.2766464 1.4104488e-38
-1.274375 -0.93745911 3.2495542 1.3367643e-38
-1.2867171 -0.94116336 3.2162278 1.1983626e-38
-1.2953472 -0.93863177 3.1886632 1.2444964e-38
-1.3052512 -0.93987519 3.1630585 1.3367285e-38
-1.3104558 -0.93606246 3.1324909 1.345948e-38
-1.3188002 -0.94189495 3.1043437 1.3366923e-38
-1.332154 -0.93985468 3.0753906 1.3367282e-38
-1.3392179 -0.94068247 3.0475013 1.3275443e-38
-1.3448455 -0.94441372 3.0181303 1.3182532e-38
-1.3533945 -0.94402146 2.9901953 1.3091051e-38
-1.3622788 -0.94586015 2.9650674 1.3182892e-38
-1.3672111 -0.94903451 2.9315903 1.2906667e-38
-1.3742536 -0.95144987 2.9044316 1.2168378e-38
-1.3869907 -0.94375187 2.8710589 1.3090696e-38
-1.390131 -0.9499079 2.8445015 1.4197049e-38
-1.4004031 -0.94613266 2.8129554 1.4658028e-38
-1.410007 -0.94249505 2.7860005 1.4843865e-38
-1.4058577 -0.94196236 2.7615798 1.419741e-38
-1.4191542 -0.93866384 2.7293005 1.3828627e-38
-1.4250492 -0.944933 2.7022405 1.392082e-38
-1.4391698 -0.93890136 2.6698103 1.4104854e-38
-1.4385324 -0.94288057 2.649678 1.2813392e-38
-1.4485829 -0.93118101 2.6144674 1.2259861e-38
-1.4517244 -0.95777607 2.5751989 1.216766e-38
-1.4725126 -0.95760494 2.5181818 1.2813389e-38
-1.2403296 -0.90910864 3.3833549 1.3919739e-38
-1.2500921 -0.90237415 3.3668036 1.1985062e-38
-1.2508336 -0.90554631 3.3469281 1.3919374e-38
-1.2586592 -0.90524238 3.3068113 1.3460199e-38
-1.2679322 -0.90493053 3.2804027 1.3552392e-38
-1.2781733 -0.90624994 3.2505045 1.2999581e-38
-1.2884041 -0.90962708 3.2174189 1.2353491e-38
-1.2976037 -0.90523726 3.1938441 1.2814107e-38
-1.3042241 -0.91151446 3.1620693 1.2999581e-38
-1.316673 -0.90990913 3.1329434 1.3275448e-38
-1.3238232 -0.90806413 3.1031682 1.345912e-38
-1.3303508 -0.91070831 3.075892 1.3367282e-38
-1.3399955 -0.91036254 3.0502717 1.3366923e-38
-1.3460913 -0.91308165 3.0207582 1.3275087e-38
-1.3587792 -0.91403568 2.9911814 1.3183248e-38
-1.3610762 -0.91491276 2.9616084 1.3366923e-38
-1.3695221 -0.91975617 2.9341757 1.2814109e-38
-1.3748641 -0.91825843 2.9102137 1.2076904e-38
-1.3830606 -0.91380006 2.8789587 1.290559e-38
-1.3959845 -0.92037249 2.844167 1.4013013e-38
-1.4006395 -0.91480428 2.8174136 1.3275089e-38
-1.4070303 -0.92676944 2.7795112 1.4382164e-38
-1.4142283 -0.91355395 2.7645688 1.4289962e-38
-1.4195728 -0.90897244 2.7271142 1.3459482e-38
-1.4334788 -0.91335386 2.6989558 1.3643873e-38
-1.4410516 -0.90964264 2.671432 1.3736068e-38
-1.4409447 -0.91318721 2.6532919 1.2444251e-38
-1.4449593 -0.90089101 2.6192894 1.1983268e-38
-1.4634882 -0.91674101 2.5825708 1.152229e-38
-1.4634794 -0.92594528 2.5253768 1.281339e-38
-1.4868674 -0.92430401 2.5147059 1.2720483e-38
-1.4812092 -0.92677909 2.4783764 1.2813392e-38
-1.2591394 -0.88483024 3.3677425 1.2260214e-38
-1.258927 -0.88381219 3.3398881 1.2629354e-38
-1.2620333 -0.87780732 3.3090963 1.2630796e-38
-1.2719676 -0.87601048 3.2801771 1.1248584e-38
-1.2846156 -0.88071084 3.2506957 1.0602858e-38
-1.2910721 -0.87946397 3.2187722 1.2260936e-38
-1.2987602 -0.88020444 3.1923823 1.2537522e-38
-1.3078266 -0.87824291 3.1639037 1.3090695e-38
-1.3181703 -0.88217455 3.1335368 1.3091055e-38
-1.323692 -0.88283616 3.1053355 1.3366923e-38
-1.3339249 -0.87739933 3.0756977 1.3458401e-38
-1.3418891 -0.87941492 3.0475652 1.3366922e-38
-1.3468642 -0.88267082 3.0210631 1.3091056e-38
-1.355725 -0.88487124 2.9920564 1.2814469e-38
-1.3614037 -0.89101851 2.9648609 1.2814471e-38
-1.3718586 -0.89038473 2.9327061 1.2076904e-38
-1.3753505 -0.88781732 2.9095697 1.2630078e-38
-1.3872101 -0.88705528 2.8768456 1.3091417e-38
-1.3972634 -0.89078212 2.846278 1.3368006e-38
-1.4005538 -0.88767081 2.8200276 1.3183256e-38
-1.4127375 -0.89647502 2.7867699 1.4196689e-38
-1.4166301 -0.87888962 2.7634382 1.3459126e-38
-1.4218407 -0.87960184 2.7335806 1.3183256e-38
-1.4359237 -0.88256574 2.7078834 1.3091419e-38
-1.443477 -0.88336593 2.6719432 1.299778e-38
-1.4451671 -0.88508224 2.6541355 1.2260215e-38
-1.447342 -0.87097096 2.6190178 1.2260573e-38
-1.4437089 -0.8976019 2.5759413 1.2997419e-38
-1.4810009 -0.89136475 2.5205562 1.2904153e-38
-1.481433 -0.89508653 2.4812894 1.2811957e-38
-1.2420796 -0.84677672 3.3773718 1.3735344e-38
-1.256004 -0.84768927 3.3368042 1.3276161e-38
-1.2676364 -0.84714508 3.3105078 1.3275448e-38
-1.2757636 -0.84686846 3.2800586 8.2979696e-39
-1.2869987 -0.85215318 3.2509053 1.0786527e-38
-1.2959538 -0.8487798 3.219187 1.2076186e-38
-1.3016082 -0.85083169 3.1941032 1.2445325e-38
-1.3099458 -0.8506732 3.1634953 1.2907022e-38
-1.316354 -0.85693628 3.1363075 1.2906664e-38
-1.3233 -0.85174459 3.1078873 1.3275087e-38
-1.3392349 -0.85262966 3.0775764 1.3182532e-38
-1.3413949 -0.85350102 3.0519297 1.2814109e-38
-1.3494308 -0.8575536 3.0217507 1.2629357e-38
-1.3566523 -0.85131967 2.989948 1.216946e-38
-1.3666488 -0.85766435 2.966078 9.0351703e-39
-1.3709199 -0.86212504 2.937778 1.0602139e-38
-1.3809736 -0.85887647 2.9118664 1.2538247e-38
-1.3904202 -0.85668153 2.8817339 1.2536443e-38
-1.4003705 -0.86090493 2.8496985 1.2446407e-38
-1.405251 -0.85749793 2.8222768 1.263008e-38
-1.4148544 -0.8585692 2.7842193 1.3182537e-38
-1.4218892 -0.84374672 2.7700305 1.2998864e-38
-1.4271467 -0.85095417 2.7327847 1.2629721e-38
-1.4382325 -0.85429758 2.7022741 1.1339702e-38
-1.4400252 -0.85698467 2.6793818 1.2168739e-38
-1.4449002 -0.85004491 2.6543512 1.1248226e-38
-1.454201 -0.84239435 2.6173611 9.3135607e-39
-1.4587845 -0.85385859 2.5819626 1.1707399e-38
-1.4750804 -0.86227608 2.5260656 1.281267e-38
-1.4829794 -0.86701024 2.4832449 1.2445325e-38
-1.2327472 -0.82684565 3.4354346 1.2075101e-38
-1.2571758 -0.82691818 3.3689647 1.3459832e-38
-1.2582211 -0.8180387 3.3386414 1.3091771e-38
-1.2708251 -0.81717682 3.3113818 1.3091774e-38
-1.2769411 -0.81675667 3.2809341 1.0603226e-38
-1.2905872 -0.82118404 3.2552536 1.2356018e-38
-1.2979128 -0.8152073 3.2214522 1.2352772e-38
-1.3012311 -0.81872928 3.1938236 1.2353491e-38
-1.3086045 -0.8219195 3.161602 1.2906302e-38
-1.3198571 -0.82468778 3.1327913 1.2905586e-38
-1.3294573 -0.82412952 3.1080129 1.2906304e-38
-1.3376036 -0.82394159 3.0795929 1.2814108e-38
-1.3443141 -0.8262037 3.0527413 1.2629715e-38
-1.3488268 -0.82779676 3.0224862 1.2905585e-38
-1.3567946 -0.82530433 2.9896765 1.1523731e-38
-1.367061 -0.82903838 2.9611995 9.8656569e-39
-1.3764259 -0.82697862 2.9342833 1.1615925e-38
-1.3852389 -0.83364087 2.9115002 1.2537883e-38
-1.3886366 -0.82417333 2.8833416 1.2444253e-38
-1.4000813 -0.82719344 2.8449216 1.3090699e-38
-1.4087284 -0.8272413 2.8211963 1.2261657e-38
-1.4191339 -0.82607961 2.7839909 1.2629724e-38
-1.4243822 -0.82322943 2.7649455 1.2445691e-38
-1.435388 -0.82002568 2.7401962 1.2168385e-38
-1.4336568 -0.82613206 2.7041862 1.1891436e-38
-1.433336 -0.82301289 2.6626284 1.2076544e-38
-1.4599878 -0.82121325 2.6154933 9.4057451e-39
-1.456669 -0.82197142 2.585634 1.0141156e-38
-1.4731097 -0.82414722 2.530606 1.2628639e-38
-1.488624 -0.83476913 2.4836998 1.2627916e-38
-1.2391546 -0.79854089 3.4150007 1.3274732e-38
-1.2486401 -0.78593284 3.3802726 1.3459116e-38
-1.2598672 -0.78701419 3.3470788 1.3091771e-38
-1.2705098 -0.78963357 3.3149059 1.2907383e-38
-1.2806075 -0.79089868 3.2805877 1.0879816e-38
-1.2903048 -0.7919628 3.2544568 1.0603583e-38
-1.3007675 -0.78504765 3.2222714 1.2168741e-38
-1.3055631 -0.78727567 3.193702 1.2260575e-38
-1.313639 -0.79066288 3.1628222 1.2722631e-38
-1.3253387 -0.79460758 3.1365724 1.2537161e-38
-1.3303001 -0.79297549 3.110111 1.2814108e-38
-1.3353388 -0.79314619 3.0812776 1.2813748e-38
-1.3466804 -0.79452413 3.048115 1.2628998e-38
-1.3518338 -0.7975319 3.0268233 1.2260577e-38
-1.3583685 -0.79843885 2.9928055 1.2168743e-38
-1.3674507 -0.79548389 2.9678669 1.0418472e-38
-1.3782982 -0.80118799 2.9400489 1.1800325e-38
-1.3841419 -0.80145764 2.9127822 1.2630081e-38
-1.3916429 -0.79603666 2.8839602 1.3089616e-38
-1.4042027 -0.79737371 2.8473067 1.3091058e-38
-1.4098431 -0.79551351 2.8230872 1.3090696e-38
-1.4213582 -0.79495764 2.7850463 1.2906308e-38
-1.4256319 -0.79115641 2.7663698 1.2814474e-38
-1.4312779 -0.79498363 2.734973 1.2444251e-38
-1.4387535 -0.79636532 2.7045033 1.1522659e-38
-1.435367 -0.78139836 2.6621773 1.1890355e-38
-1.4459709 -0.8078019 2.6265278 1.1154238e-38
-1.4624666 -0.78754723 2.5882478 1.1430463e-38
-1.4881186 -0.80490243 2.4867768 1.235313e-38
-1.2514778 -0.75518876 3.3818173 1.3459116e-38
-1.2641337 -0.76429677 3.3429427 1.226201e-38
-1.271085 -0.76334041 3.3119507 1.2446767e-38
-1.2814697 -0.75972855 3.2873554 8.3908841e-39
-1.2898378 -0.76077646 3.2553153 1.1154947e-38
-1.3021041 -0.75512409 3.2231057 1.2168739e-38
-1.3070688 -0.75551367 3.1966681 1.235277e-38
-1.3167614 -0.76119906 3.1637549 1.2814467e-38
-1.3245147 -0.76919132 3.1355016 1.2445323e-38
-1.3301088 -0.76180041 3.1081185 1.2721911e-38
-1.3373116 -0.76857203 3.07916 1.2536801e-38
-1.3451164 -0.76472872 3.0567853 1.2721193e-38
-1.3537093 -0.76448292 3.026454 1.2444967e-38
-1.3623961 -0.76609427 2.9928386 1.1801402e-38
-1.3728586 -0.76722068 2.9644246 1.0418105e-38
-1.3818886 -0.76822788 2.9406703 1.0325915e-38
-1.3884003 -0.76935256 2.9096997 1.2168746e-38
-1.3968509 -0.76420242 2.8837905 1.2629002e-38
-1.4062756 -0.76702857 2.847903 1.3182897e-38
-1.4130239 -0.76397216 2.8206265 1.2537883e-38
-1.4234675 -0.76563776 2.7861097 1.3275092e-38
-1.4278213 -0.76696676 2.7663815 1.3091419e-38
-1.4311785 -0.76459521 2.7386763 1.2628646e-38
-1.441931 -0.76966166 2.7037385 9.8631359e-39
-1.4363612 -0.76537251 2.6726713 1.2997061e-38
-1.454224 -0.76545364 2.6279356 1.0048615e-38
-1.4633772 -0.75167608 2.5807228 1.1519424e-38
-1.4784081 -0.76441711 2.5338373 1.2260934e-38
-1.4919379 -0.77673399 2.4876893 1.2627919e-38
-1.2323344 -0.72625411 3.441489 1.3089975e-38
-1.2511275 -0.72539419 3.3738213 1.3274366e-38
-1.2611923 -0.73285931 3.3436716 1.2907024e-38
-1.2764031 -0.72822839 3.3132725 1.2906302e-38
-1.2832814 -0.73210323 3.2831688 1.2077263e-38
-1.2933272 -0.72727376 3.2564127 1.2261296e-38
-1.3048445 -0.72551489 3.2245378 1.2076543e-38
-1.3088899 -0.73164576 3.1941862 1.2169096e-38
-1.3207262 -0.73113245 3.1643994 1.2814467e-38
-1.3275998 -0.73817843 3.1389432 1.2721191e-38
-1.3354548 -0.73296559 3.1136377 1.2998139e-38
-1.344615 -0.73263371 3.0875132 1.2721552e-38
-1.3434772 -0.73507106 3.0561213 1.2629718e-38
-1.3549356 -0.73781759 3.0223174 1.2261296e-38
-1.3645468 -0.73494101 2.9931042 1.1615568e-38
-1.373511 -0.73702258 2.9668264 1.0878e-38
-1.3810947 -0.73955739 2.9369521 1.0416298e-38
-1.3909582 -0.74100679 2.9092019 1.1800671e-38
-1.3964951 -0.73470014 2.8856406 1.25386e-38
-1.4086208 -0.73738408 2.8497198 1.2998865e-38
-1.4169303 -0.73515779 2.8219423 1.3275095e-38
-1.426291 -0.73608315 2.7864635 1.336693e-38
-1.4313645 -0.7357775 2.7678053 1.3458767e-38
-1.4388416 -0.73607385 2.7473531 1.3366927e-38
-1.4310516 -0.7230829 2.6999025 1.1615562e-38
-1.4395752 -0.73161614 2.6677094 1.1983627e-38
-1.4504776 -0.73369426 2.6515272 1.1983268e-38
-1.4537464 -0.7326954 2.6291025 1.0968039e-38
-1.479816 -0.72289276 2.5942028 1.1519766e-38
-1.4828784 -0.73146313 2.562844 1.1337897e-38
-1.4838662 -0.7416212 2.4947674 1.2352051e-38
-1.2431649 -0.69557405 3.4101181 1.2997419e-38
-1.2550758 -0.69676447 3.3753128 1.2998139e-38
-1.2666719 -0.70439607 3.3450787 1.2445684e-38
-1.2770377 -0.69987452 3.3121989 1.3090335e-38
-1.2872223 -0.70289004 3.2836719 1.2998503e-38
-1.2925867 -0.70007628 3.2552128 1.1984705e-38
-1.3082447 -0.70096523 3.2234337 1.1984706e-38
-1.3083754 -0.70001477 3.1964648 1.2261299e-38
-1.3206992 -0.70264143 3.1677406 1.2721912e-38
-1.3269956 -0.70170075 3.1369889 1.2445684e-38
-1.3384577 -0.70424879 3.1105185 1.2721552e-38
-1.3473382 -0.70303583 3.0855465 1.2721911e-38
-1.3464242 -0.70642799 3.0564976 1.2721911e-38
-1.3586935 -0.70852208 3.0275083 1.2537522e-38
-1.368342 -0.70717615 2.9943743 1.2076187e-38
-1.3757989 -0.70887816 2.9611056 1.1337179e-38
-1.3797529 -0.714966 2.9370041 1.1799232e-38
-1.3938627 -0.70915961 2.908469 1.198435e-38
-1.4026552 -0.7048943 2.88146 1.2537521e-38
-1.4117961 -0.70750874 2.8501546 1.2906308e-38
-1.418053 -0.70562762 2.8203859 1.2998503e-38
-1.4281479 -0.7053206 2.7871869 1.3090342e-38
-1.4339322 -0.70687509 2.7683895 1.3090343e-38
-1.4310799 -0.7125681 2.732362 1.2905948e-38
-1.4343708 -0.69665551 2.7012236 1.179923e-38
-1.4502777 -0.69354624 2.6730638 1.27212e-38
-1.4594476 -0.69431567 2.6323905 1.1153865e-38
-1.4576157 -0.70520067 2.6276321 1.1892515e-38
-1.4724981 -0.70090711 2.5903592 1.1156383e-38
-1.4778289 -0.71825498 2.5384998 1.2168378e-38
-1.4850307 -0.71630579 2.4966383 1.2076542e-38
-1.2335964 -0.66209108 3.4526441 1.2628638e-38
-1.2468761 -0.66616881 3.4121635 1.2445328e-38
-1.2599305 -0.66931927 3.3762574 1.2905223e-38
-1.2715285 -0.66648984 3.3464382 1.2445686e-38
-1.2817355 -0.66927928 3.3129394 1.2444965e-38
-1.2884431 -0.67196578 3.2876189 1.3089975e-38
-1.2970793 -0.66986448 3.2591865 1.2537521e-38
-1.3043807 -0.67312354 3.2248037 1.1892152e-38
-1.3124262 -0.67309552 3.1973577 1.2260574e-38
-1.3234448 -0.67251706 3.1680698 1.2721552e-38
-1.328838 -0.67053103 3.1345363 1.235313e-38
-1.3439469 -0.67490453 3.1084228 1.2722275e-38
-1.3497798 -0.67160863 3.0792906 1.318253e-38
-1.352695 -0.68330109 3.0540206 1.2628998e-38
-1.362478 -0.67890763 3.0278921 1.2537161e-38
-1.3665859 -0.67990202 2.9959726 1.2076543e-38
-1.3765616 -0.67929417 2.9666936 1.2444967e-38
-1.3848097 -0.68429059 2.9353728 1.1798876e-38
-1.3943278 -0.68258274 2.9084127 1.2260931e-38
-1.4055041 -0.67426091 2.8855622 1.2260934e-38
-1.4138193 -0.6772154 2.8523309 1.2721559e-38
-1.4206197 -0.67650062 2.8235469 1.2352775e-38
-1.4322788 -0.67704678 2.7886236 1.2813753e-38
-1.4363945 -0.68657202 2.7619779 1.2813393e-38
-1.4197899 -0.66693956 2.7401659 1.1706677e-38
-1.4403006 -0.66543782 2.7022984 1.1615202e-38
-1.4434114 -0.66999984 2.673557 1.2259855e-38
-1.455161 -0.67137665 2.6342609 1.2167305e-38
-1.4600713 -0.67441267 2.6116145 1.1799239e-38
-1.4697579 -0.67360735 2.5897069 1.1798877e-38
-1.4817488 -0.68850011 2.539516 1.2076181e-38
-1.2376606 -0.63849264 3.4514704 1.2628639e-38
-1.2501059 -0.63668418 3.4135416 1.2628638e-38
-1.2640834 -0.63522947 3.3752513 1.2259855e-38
-1.275016 -0.64030153 3.3386021 1.2536441e-38
-1.2815257 -0.63849521 3.3146594 1.226165e-38
-1.28668 -0.64316535 3.2874629 1.20769e-38
-1.2985708 -0.63699085 3.2594545 1.2261293e-38
-1.3091378 -0.6423645 3.2262943 1.2259852e-38
-1.3162895 -0.64268464 3.2014394 1.2076184e-38
-1.3226107 -0.6410529 3.1741009 1.253716e-38
-1.3307515 -0.64436841 3.1373935 1.2536799e-38
-1.3413726 -0.64524901 3.1094165 1.2721192e-38
-1.3504299 -0.64775771 3.0837231 1.2537158e-38
-1.3501189 -0.64751053 3.0567961 1.2536442e-38
-1.3619542 -0.64851314 3.0300577 1.2537521e-38
-1.3693018 -0.65088731 2.9989624 1.2444968e-38
-1.3767576 -0.64760464 2.9669795 1.2260217e-38
-1.3891715 -0.64655006 2.9399979 1.2075107e-38
-1.3975815 -0.64762419 2.909776 1.1799956e-38
-1.4033736 -0.64696741 2.8869271 1.1799597e-38
-1.4153382 -0.6470899 2.8549821 1.2537525e-38
-1.4245304 -0.64622295 2.8221636 1.2537168e-38
-1.4400827 -0.65815377 2.7642519 1.2537522e-38
-1.4273107 -0.63429761 2.7409692 1.1613411e-38
-1.4438893 -0.6368764 2.7037261 1.1614124e-38
-1.4530731 -0.63817728 2.6694059 1.1430453e-38
-1.4651314 -0.63290852 2.6359515 1.1429737e-38
-1.4868317 -0.65937859 2.5399342 1.2076183e-38
-1.2372645 -0.62092656 3.4562602 1.2537158e-38
-1.259706 -0.60726392 3.4014864 1.2536802e-38
-1.2692398 -0.60801274 3.3630228 1.2628998e-38
-1.2742018 -0.60832793 3.3451185 1.2259854e-38
-1.2887363 -0.61312759 3.3152256 1.2353486e-38
-1.2932481 -0.60735536 3.2863302 1.2629714e-38
-1.3005639 -0.6116212 3.2587771 1.1891792e-38
-1.308139 -0.6129654 3.2268164 1.189215e-38
-1.3144521 -0.6120407 3.1964436 1.2076544e-38
-1.3227218 -0.61075693 3.1680715 1.2536799e-38
-1.3282443 -0.61502647 3.14078 1.2537521e-38
-1.3410033 -0.6139912 3.1118317 1.2537161e-38
-1.3508762 -0.61809117 3.0824466 1.2905945e-38
-1.3530986 -0.61849451 3.0583317 1.2813389e-38
-1.3654994 -0.61963153 3.0294425 1.2352771e-38
-1.3703147 -0.61875588 2.9955184 1.2075102e-38
-1.3787364 -0.6202209 2.9654388 1.198363e-38
-1.3875756 -0.61770648 2.9315696 1.0968755e-38
-1.3972288 -0.62625837 2.9077656 1.1431535e-38
-1.4107645 -0.63014013 2.8811886 1.2628283e-38
-1.4186258 -0.62960351 2.8513999 1.2628642e-38
-1.4239504 -0.61730343 2.8315926 1.2445688e-38
-1.4389335 -0.60698944 2.7403517 1.1430096e-38
-1.4419408 -0.60567278 2.7067063 1.1154947e-38
-1.4374465 -0.60043275 2.6762228 1.1063467e-38
-1.4673351 -0.60241848 2.6378691 1.1245342e-38
-1.4723274 -0.61646092 2.6292665 1.2169455e-38
-1.4760944 -0.61665583 2.5876842 1.2076183e-38
-1.4885385 -0.62445092 2.5700774 1.1244617e-38
-1.4910752 -0.63030183 2.5407367 1.207618e-38
-1.2380813 -0.5830968 3.4508693 1.2720831e-38
-1.2598926 -0.57730478 3.4018831 1.2628639e-38
-1.2679974 -0.57883799 3.3648119 1.2536079e-38
-1.2820542 -0.58190596 3.3433888 1.2076544e-38
-1.2860183 -0.57958668 3.3182096 1.1983987e-38
-1.2935064 -0.58170956 3.2907729 1.235241e-38
-1.3018973 -0.57774562 3.2611237 1.2260574e-38
-1.3130887 -0.57936025 3.2300541 1.1799956e-38
-1.3200965 -0.57943708 3.1990137 1.2076186e-38
-1.3236057 -0.57795185 3.1692371 1.235277e-38
-1.3340089 -0.58531177 3.1382709 1.2353489e-38
-1.3414063 -0.58116585 3.1128604 1.2445686e-38
-1.351335 -0.58753568 3.0855978 1.2906664e-38
-1.3571266 -0.58781725 3.0580084 1.2260215e-38
-1.3690435 -0.59387833 3.0270317 1.2167658e-38
-1.3746464 -0.59042901 2.9945064 1.2075821e-38
-1.3850833 -0.5925687 2.9585032 1.1983268e-38
-1.3931644 -0.59197491 2.9348903 1.1153866e-38
-1.3999556 -0.59860492 2.908798 1.1523369e-38
-1.3876042 -0.59621203 2.8827863 1.2995984e-38
-1.4202986 -0.59972769 2.8532801 1.2628282e-38
-1.4272934 -0.57635993 2.7456315 1.1522646e-38
-1.4285655 -0.57041258 2.7127779 1.1431172e-38
-1.4568483 -0.58369452 2.6804762 1.2260574e-38
-1.4641864 -0.57478654 2.6386833 1.1800316e-38
-1.4761773 -0.57863224 2.5912652 1.2260574e-38
-1.4935634 -0.59763455 2.5426931 1.2076177e-38
-1.2444056 -0.54794532 3.4438639 1.2720831e-38
-1.2621278 -0.54796916 3.4025137 1.2536804e-38
-1.2821506 -0.54708111 3.3629222 1.2721189e-38
-1.2807695 -0.55567551 3.3439121 1.1984343e-38
-1.2862222 -0.5542323 3.3115582 1.2629714e-38
-1.2941979 -0.55016541 3.2903986 1.2536441e-38
-1.3060633 -0.54774648 3.2631228 1.2260212e-38
-1.3121425 -0.54546934 3.2316134 1.2260212e-38
-1.3186222 -0.55233556 3.1996033 1.2076183e-38
-1.3252743 -0.54883343 3.1727483 1.216766e-38
-1.3348154 -0.55593419 3.1441867 1.2444605e-38
-1.3452225 -0.55623651 3.1126606 1.235241e-38
-1.3579178 -0.55870229 3.0819478 1.2536802e-38
-1.3592116 -0.5598982 3.0564454 1.2443888e-38
-1.365065 -0.56157434 3.0304768 1.2259138e-38
-1.3724232 -0.55726212 3.0014594 1.2259855e-38
-1.3811808 -0.56376511 2.9686925 1.2351691e-38
-1.3955576 -0.56219822 2.9368098 1.1429017e-38
-1.40063 -0.56403428 2.9082451 1.1521931e-38
-1.4334718 -0.54451209 2.7466962 1.1523365e-38
-1.4398116 -0.55117822 2.7068717 1.1615565e-38
-1.4532732 -0.5566389 2.6793671 1.1891436e-38
-1.46547 -0.54279953 2.6418607 1.1890718e-38
-1.4957305 -0.56798184 2.544512 1.2258773e-38
-1.2476455 -0.51847339 3.4454365 1.2628996e-38
-1.2623262 -0.51698303 3.4026778 1.2812667e-38
-1.2752142 -0.51616371 3.3679838 1.2813028e-38
-1.2807705 -0.52381259 3.3491142 1.1615203e-38
-1.2898092 -0.52227885 3.3184712 1.1891792e-38
-1.2949879 -0.51850265 3.2878382 1.2260214e-38
-1.3049471 -0.5228405 3.2585797 1.1431534e-38
-1.3146346 -0.5156365 3.2324846 1.2260214e-38
-1.3241612 -0.52054292 3.2037106 1.2167658e-38
-1.3266857 -0.51628751 3.172164 1.216802e-38
-1.3371234 -0.52291179 3.144676 1.2443886e-38
-1.3483825 -0.52758527 3.1163659 1.2168017e-38
-1.3562614 -0.5302552 3.0876679 1.2536082e-38
-1.3615345 -0.53149968 3.0583577 1.2166939e-38
-1.3651971 -0.53246874 3.0271561 1.1890351e-38
-1.3698027 -0.52597386 2.9986274 1.1613045e-38
-1.3843188 -0.53328562 2.9666295 1.1706323e-38
-1.3966695 -0.53136629 2.9378107 1.1153868e-38
-1.4023471 -0.53348905 2.9125228 1.1061311e-38
-1.405517 -0.53332412 2.8949702 1.2075463e-38
-1.412921 -0.51733327 2.7868798 1.1706679e-38
-1.4294977 -0.51744324 2.746362 1.2259851e-38
-1.4410247 -0.51558149 2.7077899 1.1707762e-38
-1.4521278 -0.52214307 2.6812305 1.1707044e-38
-1.4625382 -0.5287751 2.6432719 1.1983271e-38
-1.4649444 -0.53072697 2.613251 1.1246779e-38
-1.4981829 -0.5383451 2.5461967 1.189179e-38
-1.2548293 -0.48702669 3.431433 1.2628994e-38
-1.2761636 -0.48653531 3.3920112 1.2537518e-38
-1.2754982 -0.4929674 3.3652105 1.2443885e-38
-1.283968 -0.48718947 3.3481438 1.1983984e-38
-1.2882237 -0.48902962 3.3171706 1.2259855e-38
-1.2988541 -0.48658815 3.2877805 1.2537161e-38
-1.3056468 -0.49197868 3.2604918 1.189143e-38
-1.31564 -0.49115598 3.2323401 1.1983626e-38
-1.3207768 -0.49366072 3.2017486 1.1891431e-38
-1.3311907 -0.49232048 3.1757097 1.235241e-38
-1.338305 -0.49351457 3.1416638 1.2260214e-38
-1.3467114 -0.50017124 3.1162131 1.2260214e-38
-1.355171 -0.50309193 3.0795233 1.2259495e-38
-1.3639293 -0.49824953 3.0614552 1.2259136e-38
-1.3683795 -0.50337249 3.0304763 1.152193e-38
-1.3791422 -0.50052363 3.0033236 1.1614484e-38
-1.3851633 -0.50173599 2.9697917 1.1891073e-38
-1.3975575 -0.49817413 2.9375627 1.0877277e-38
-1.4033991 -0.51023036 2.9147873 1.0048962e-38
-1.4326448 -0.48800373 2.7514396 1.1615202e-38
-1.4444829 -0.49300593 2.7368631 1.253752e-38
-1.4436034 -0.48200333 2.7097645 1.2074742e-38
-1.4608643 -0.4842307 2.6832433 1.2074748e-38
-1.4657364 -0.49410301 2.6449819 1.1798522e-38
-1.4690849 -0.49761447 2.6149111 1.1246425e-38
-1.4781121 -0.48183495 2.5995815 1.198507e-38
-1.5012428 -0.49806586 2.5486143 1.1892508e-38
-1.2351323 -0.45316076 3.4992783 1.272047e-38
-1.2530092 -0.4571147 3.4481912 1.1246062e-38
-1.2634485 -0.45624769 3.4199891 1.170667e-38
-1.2712946 -0.46538347 3.3904846 1.1799236e-38
-1.2792983 -0.45672634 3.3692107 1.2628996e-38
-1.2869626 -0.45904422 3.347141 1.1984705e-38
-1.2892458 -0.45627752 3.3166356 1.2260573e-38
-1.3015851 -0.4556849 3.2875221 1.2629357e-38
-1.3126023 -0.45987937 3.2570739 1.1338618e-38
-1.3175843 -0.46037185 3.2310977 1.189179e-38
-1.326845 -0.46167311 3.2028022 1.2076183e-38
-1.3333127 -0.46079352 3.1758332 1.2351691e-38
-1.3390853 -0.46357143 3.1442556 1.1246061e-38
-1.3526403 -0.47014907 3.1166418 1.1246419e-38
-1.3569065 -0.47228312 3.0865619 1.1798874e-38
-1.3666531 -0.46622702 3.0630729 1.1798877e-38
-1.3718884 -0.47317371 3.0320425 1.1430092e-38
-1.3804513 -0.47640175 2.996207 1.2075821e-38
-1.3904066 -0.46632445 2.9680359 1.1799234e-38
-1.4003087 -0.46792728 2.9392707 1.1060227e-38
-1.4354308 -0.45336381 2.7535505 1.1889271e-38
-1.434833 -0.45468226 2.7205648 1.1981107e-38
-1.449873 -0.45694581 2.7072799 1.2075104e-38
-1.4649246 -0.456945 2.6844542 1.2075102e-38
-1.4710891 -0.46021858 2.6464157 1.1799597e-38
-1.4815453 -0.45290637 2.615489 1.1338256e-38
-1.470233 -0.47916508 2.6034832 1.2168385e-38
-1.2440381 -0.43259177 3.4893756 1.2077982e-38
-1.2493484 -0.42638591 3.4620392 1.0693608e-38
-1.2695125 -0.42707792 3.4226074 1.1614483e-38
-1.2707431 -0.42698076 3.3979678 1.2628272e-38
-1.2782552 -0.43414167 3.3803968 1.1891068e-38
-1.2916716 -0.43027478 3.3481057 1.1983983e-38
-1.2956009 -0.4289715 3.3191123 1.2168015e-38
-1.3028983 -0.42832118 3.2900159 1.2168376e-38
-1.3108119 -0.43132815 3.2617538 1.1707756e-38
-1.3184172 -0.43132564 3.2350373 1.1983983e-38
-1.3261678 -0.43017831 3.2038481 1.189179e-38
-1.3378433 -0.42992491 3.1758094 1.2168014e-38
-1.3456038 -0.43239698 3.1500237 1.0876918e-38
-1.3542746 -0.43534449 3.1155796 1.0784362e-38
-1.3581841 -0.44637296 3.0863392 1.1429732e-38
-1.3698612 -0.43825334 3.0625803 1.2259494e-38
-1.3698651 -0.43808752 3.0349076 1.1521566e-38
-1.3769608 -0.44242185 3.0024233 1.1983263e-38
-1.3888946 -0.44298065 2.9714117 1.1798873e-38
-1.4033129 -0.43681917 2.9413714 1.1431169e-38
-1.4073274 -0.43487689 2.908011 1.1153865e-38
-1.4423091 -0.4271965 2.7539887 1.1059877e-38
-1.4499515 -0.422591 2.719486 1.152157e-38
-1.4610643 -0.42440829 2.6846571 1.1430092e-38
-1.4697106 -0.43590194 2.650404 1.1891073e-38
-1.4845763 -0.43583328 2.6009665 1.2443885e-38
-1.4956682 -0.43375757 2.5573163 1.1797438e-38
-1.233359 -0.41600454 3.5109603 1.2260934e-38
-1.2450856 -0.39685777 3.476274 1.2628632e-38
-1.2562894 -0.39716792 3.4494619 1.2628629e-38
-1.2697737 -0.39804894 3.423053 1.2628992e-38
-1.2719339 -0.39724118 3.3961072 1.2168017e-38
-1.2788881 -0.39678076 3.368876 1.225985e-38
-1.286797 -0.40320954 3.3498778 1.207582e-38
-1.2949405 -0.40025496 3.318743 1.2260212e-38
-1.3017726 -0.3991321 3.292624 1.2351689e-38
-1.3151673 -0.39612994 3.2625875 1.1707399e-38
-1.3183995 -0.40105215 3.2336504 1.1799234e-38
-1.3262458 -0.39811894 3.20328 1.1891074e-38
-1.3329687 -0.40589955 3.1787395 1.1984343e-38
-1.3477108 -0.40483698 3.145313 1.1799233e-38
-1.3581327 -0.40596017 3.1184983 1.1246062e-38
-1.3612502 -0.40709838 3.0886266 1.1245703e-38
-1.3665414 -0.40470427 3.0571611 1.1614843e-38
-1.3715059 -0.41127598 3.0337987 1.1890347e-38
-1.3841546 -0.41315922 3.0024054 1.2074742e-38
-1.3905551 -0.41368973 2.9727178 1.2074023e-38
-1.3961753 -0.41015372 2.942522 1.1152427e-38
-1.438692 -0.39704773 2.7535405 1.1428297e-38
-1.445325 -0.39224416 2.7230451 1.1796352e-38
-1.4472244 -0.39320004 2.7030613 1.2167661e-38
-1.472355 -0.39216506 2.6845171 1.1613765e-38
-1.4834971 -0.40328854 2.6462779 1.2167298e-38
-1.4885665 -0.39219898 2.6032717 1.2168378e-38
-1.2469573 -0.3675974 3.4768496 1.2258056e-38
-1.251852 -0.37078741 3.461751 1.1153871e-38
-1.2647365 -0.36797979 3.4278302 1.2443526e-38
-1.2770076 -0.36745742 3.4003358 1.2536438e-38
-1.2818578 -0.36682001 3.3700411 1.2075104e-38
-1.2900259 -0.36670235 3.3511424 1.1708116e-38
-1.2942736 -0.36850783 3.3221431 1.1892147e-38
-1.3065093 -0.36751339 3.2932658 1.2259852e-38
-1.3160038 -0.36614245 3.2625666 1.1615202e-38
-1.3190254 -0.37361115 3.2340689 1.2352048e-38
-1.3292015 -0.37197229 3.2050722 1.1615203e-38
-1.3370609 -0.37633047 3.1763361 1.1338258e-38
-1.3485739 -0.36939549 3.1489887 1.1338256e-38
-1.355179 -0.37782425 3.1242082 1.1154224e-38
-1.3623676 -0.37872696 3.0854445 1.1153503e-38
-1.3752705 -0.37883973 3.058908 1.1614844e-38
-1.3755785 -0.38277385 3.0350721 1.1798154e-38
-1.3888876 -0.38420993 3.0043061 1.1982905e-38
-1.3925775 -0.38027745 2.9783831 1.161484e-38
-1.4024297 -0.3762854 2.9425645 1.1153865e-38
-1.4018356 -0.36254883 2.8690872 1.1429733e-38
-1.4228727 -0.37725663 2.8287566 1.1614477e-38
-1.44216 -0.36572734 2.7551649 1.1707758e-38
-1.4512619 -0.37538415 2.7336104 1.179816e-38
-1.4582193 -0.3655335 2.7121742 1.1982907e-38
-1.4684075 -0.36304858 2.687813 1.1522287e-38
-1.4842379 -0.36410388 2.6503055 1.1799592e-38
-1.4850578 -0.37379694 2.6209991 1.1521563e-38
-1.4910434 -0.36226374 2.604974 1.216838e-38
-1.2472591 -0.34562707 3.4855554 1.2258409e-38
-1.2599946 -0.33819947 3.4500368 1.2629351e-38
-1.2659602 -0.33764195 3.4284809 1.2536798e-38
-1.2735064 -0.34174332 3.3984408 1.1983624e-38
-1.2853317 -0.33538634 3.3703327 1.2259131e-38
-1.2945473 -0.34322357 3.3464096 1.2443522e-38
-1.2984498 -0.33716831 3.3189855 1.2260207e-38
-1.3088269 -0.33538392 3.2889502 1.2813022e-38
-1.3202186 -0.33698377 3.2642901 1.2444961e-38
-1.321461 -0.34090167 3.2360287 1.2351691e-38
-1.338169 -0.34411001 3.206418 1.198363e-38
-1.3440083 -0.342419 3.1804028 1.2167655e-38
-1.3533858 -0.34717295 3.1511433 1.2076179e-38
-1.3574651 -0.34875235 3.1219614 1.1706679e-38
-1.3602561 -0.35620913 3.0869195 1.1245339e-38
-1.3707755 -0.35145798 3.0596874 1.1429732e-38
-1.3862138 -0.3613764 3.026799 1.1522647e-38
-1.3870343 -0.34857169 3.0080228 1.1614121e-38
-1.3942642 -0.34902158 2.9802544 1.1154225e-38
-1.3955737 -0.35148507 2.9449501 1.1153865e-38
-1.4159065 -0.34422985 2.9230354 1.0139712e-38
-1.4457215 -0.33616227 2.7564316 1.1061674e-38
-1.4609466 -0.33190888 2.7445726 9.7752633e-39
-1.459244 -0.33626181 2.7138765 1.0969119e-38
-1.4685107 -0.34178501 2.6947076 1.1154591e-38
-1.4663054 -0.34551725 2.6580939 1.1338256e-38
-1.4956632 -0.34314182 2.6046546 1.2169101e-38
-1.5086274 -0.35621351 2.5586956 1.2166578e-38
-1.250252 -0.30725273 3.4785047 1.2351329e-38
-1.2578053 -0.30763647 3.4576116 1.226021e-38
-1.2656705 -0.30647725 3.4312038 1.1891068e-38
-1.2741302 -0.30869409 3.4040849 1.2259129e-38
-1.2824094 -0.30931249 3.3749003 1.2166935e-38
-1.2901967 -0.30670607 3.3512704 1.1983263e-38
-1.3014771 -0.30806506 3.3232913 1.2260205e-38
-1.3102982 -0.30623204 3.2942441 1.225985e-38
-1.3194375 -0.31259891 3.2636814 1.2167297e-38
-1.3249938 -0.31105021 3.2368107 1.2074741e-38
