# .PCD v0.7 - Point Cloud Data file format
VERSION 0.7
FIELDS x y z rgb
SIZE 4 4 4 4
TYPE F F F F
COUNT 1 1 1 1
WIDTH 1067
HEIGHT 1
VIEWPOINT 0 0 0 1 0 0 0
POINTS 1067
DATA ascii
-0.1504247 0.33602601 1.5315622 1.5200746e-38
-0.13001822 0.33557022 1.5315332 1.4931355e-38
-0.11171304 0.33513245 1.5312998 1.5117184e-38
-0.089807943 0.33361301 1.5296667 1.5393767e-38
-0.070989408 0.3357313 1.5293748 1.5301928e-38
-0.050408132 0.33625442 1.5325384 1.5209734e-38
-0.031922996 0.33664244 1.534 1.5393048e-38
-0.010197777 0.33726522 1.5308331 1.5302649e-38
0.0043971431 0.3356486 1.539 1.5026785e-38
0.032936905 0.33233881 1.53725 1.5301212e-38
0.052415714 0.33189952 1.5285001 1.5117544e-38
0.069318093 0.33412188 1.5320001 1.5118267e-38
0.11178694 0.33618122 1.53 1.5209387e-38
0.13017407 0.3339017 1.5330769 1.4840245e-38
0.14994627 0.33647263 1.5360831 1.5394848e-38
0.1692563 0.3343145 1.5337498 1.4747687e-38
0.18864936 0.33195606 1.5355 1.4655853e-38
0.21252857 0.32978573 1.539 1.4747328e-38
0.23292489 0.33617744 1.53 1.4012641e-38
0.24912919 0.33596724 1.5287056 1.4105553e-38
0.26408765 0.33412188 1.5319999 1.3553461e-38
0.29330263 0.33576244 1.5300001 1.3734622e-38
0.30897927 0.33588499 1.52675 1.3366554e-38
0.32829094 0.33267644 1.5337501 1.3181803e-38
0.35226867 0.33279473 1.5337499 1.3090326e-38
0.36646858 0.3314794 1.5305998 1.3090323e-38
0.38081142 0.33412188 1.5319999 1.2907003e-38
0.41873333 0.3326562 1.5320001 1.2076166e-38
0.43004763 0.33375049 1.5319999 1.1799225e-38
0.44834334 0.33481759 1.5285 1.1522642e-38
0.47274452 0.32907671 1.5259999 1.1429726e-38
0.48957202 0.33294588 1.5301576 1.1062741e-38
0.50688094 0.3355 1.525 1.0879068e-38
0.5319894 0.33664244 1.534 1.1244614e-38
0.54679459 0.33602139 1.5326998 1.1061657e-38
0.57477021 0.33669212 1.5337499 1.0601399e-38
0.59289992 0.33524543 1.5330768 1.0325166e-38
0.61020792 0.33606026 1.5345787 1.0232255e-38
0.63099295 0.33570963 1.5329131 9.8638366e-39
0.64302057 0.33141622 1.5329999 9.8634652e-39
0.67047006 0.33720991 1.5289999 8.94439e-39
0.69202018 0.33823571 1.5308332 8.0235197e-39
0.7105602 0.33650106 1.5323681 7.4678292e-39
0.73045349 0.33570996 1.5319998 4.1502453e-39
0.75045562 0.33624297 1.5314615 3.7829005e-39
0.76756728 0.33556369 1.5309999 3.59671e-39
0.90338093 0.32969046 1.525 3.964761e-39
0.62888092 0.34130952 1.525 9.8652785e-39
0.89191073 -0.4446004 1.5500832 3.4112383e-39
0.90885508 -0.44586441 1.5501999 3.13465e-39
0.92144662 -0.44519332 1.553 3.1342885e-39
0.88594949 -0.43927714 1.553 3.5034325e-39
0.81766605 0.21610284 1.5506667 3.5963526e-39
0.82138366 0.21334885 1.5479999 3.6885455e-39
0.81331807 0.22977905 1.5497191 3.4137606e-39
0.82306093 0.23330545 1.5459999 3.5048759e-39
0.81495523 0.24256381 1.553 3.5077583e-39
0.82898086 0.24466223 1.5506666 3.0431775e-39
0.84220195 0.24294285 1.546 2.2130538e-39
-0.94085145 0.32834095 1.546 1.364279e-38
-0.93790668 0.32834095 1.546 1.364279e-38
-0.90529394 0.33031365 1.5506667 1.3918282e-38
-0.88773793 0.33056587 1.5518334 1.3918289e-38
-0.86881107 0.33188573 1.5488 1.3826096e-38
-0.81495523 0.32982761 1.553 1.253679e-38
-0.78897738 0.33162221 1.549111 1.2722256e-38
-0.77019405 0.33239692 1.54775 1.2906288e-38
-0.7496562 0.32908094 1.5495 1.2260207e-38
-0.72962803 0.32509562 1.5501999 1.2260208e-38
-0.71412861 0.32660216 1.5466362 1.3180008e-38
-0.69067353 0.33011922 1.5516 1.3367268e-38
-0.66701621 0.33203572 1.5495 1.2903778e-38
-0.65520954 0.32981333 1.546 1.2998126e-38
-0.62715071 0.33167118 1.55125 1.2354205e-38
-0.61380482 0.3327857 1.553 1.2997775e-38
-0.58503944 0.33240736 1.55125 1.2536439e-38
-0.56894547 0.32949257 1.5498888 1.281195e-38
-0.54857349 0.33234924 1.5490001 1.299634e-38
-0.53064322 0.33304334 1.5504545 1.2628639e-38
-0.51008773 0.33142847 1.5491817 1.2445324e-38
-0.49584335 0.33203572 1.5495 1.2444242e-38
-0.46817374 0.33247468 1.5488 1.3179289e-38
-0.44879881 0.33202887 1.5480999 1.3087815e-38
-0.43533301 0.33574384 1.553 1.2903068e-38
-0.41117522 0.33574384 1.553 1.3271485e-38
-0.38968223 0.33351955 1.5518332 1.3456226e-38
-0.37188333 0.33350807 1.5495 1.3181797e-38
-0.34927294 0.33629999 1.5474 1.3643497e-38
-0.32799497 0.33215931 1.5492939 1.5385138e-38
-0.31374127 0.33244479 1.5498888 1.584467e-38
-0.2910507 0.33388975 1.55125 1.694345e-38
-0.2632705 0.33574381 1.553 1.7123892e-38
-0.25234714 0.33449417 1.5495 1.712353e-38
-0.22953618 0.33374891 1.5483334 1.6936991e-38
-0.21693 0.33350807 1.5495 1.6843012e-38
-0.18941602 0.33492461 1.5504545 1.6208426e-38
-0.16828413 0.33310676 1.5514444 1.5115392e-38
-0.14816898 0.33157146 1.5499372 1.4287423e-38
-0.13234726 0.33077788 1.5478261 1.428886e-38
-0.11474262 0.33387783 1.5495 1.4841319e-38
-0.087698333 0.33608121 1.54775 1.5301572e-38
-0.067440957 0.33671397 1.5506667 1.5209373e-38
-0.051179323 0.33508357 1.5480001 1.5116457e-38
-0.031734522 0.33682933 1.5495 1.5300491e-38
-0.013251428 0.33717525 1.546 1.5026422e-38
0.053005714 0.33423048 1.546 1.5024988e-38
0.06832698 0.33522576 1.5483334 1.4933517e-38
0.090714917 0.33870193 1.553 1.5393058e-38
0.11071809 0.33762512 1.5500001 1.511791e-38
0.13137333 0.33340871 1.5500001 1.4748408e-38
0.15055715 0.33390132 1.5486922 1.4840959e-38
0.16754517 0.33361131 1.5490001 1.465693e-38
0.18909642 0.33462593 1.55125 1.4564373e-38
0.2115038 0.3327857 1.553 1.4839164e-38
0.23473659 0.33690801 1.5502 1.401264e-38
0.24850869 0.3351661 1.548625 1.382861e-38
0.27003467 0.33599734 1.546 1.3736053e-38
0.29218811 0.33646178 1.5495 1.3918289e-38
0.30917215 0.3370268 1.5483333 1.327436e-38
0.32539046 0.33574381 1.553 1.31818e-38
0.35341176 0.33375335 1.5483334 1.3273999e-38
0.36828285 0.3327857 1.553 1.3458386e-38
0.39273748 0.33473492 1.5483334 1.2721174e-38
0.40082189 0.33574381 1.553 1.2628262e-38
0.43101907 0.33483583 1.5488 1.1708104e-38
0.45024955 0.33804765 1.5500001 1.1430446e-38
0.4659 0.33574381 1.553 1.170559e-38
0.4961924 0.33128572 1.546 1.0695755e-38
0.50849658 0.33751866 1.553 1.0787232e-38
0.53028864 0.33784315 1.5510001 1.1153854e-38
0.54948598 0.33508357 1.5480001 1.1152775e-38
0.56880999 0.33740696 1.5490001 1.0601758e-38
0.58984327 0.3367818 1.5500001 1.0508486e-38
0.61198163 0.33260062 1.5475556 9.9549476e-39
0.62910765 0.33360341 1.5470002 9.6787279e-39
0.6729157 0.33645952 1.5495 9.0365842e-39
0.68184096 0.3387019 1.553 9.0355024e-39
0.70975316 0.33608121 1.54775 7.4696327e-39
0.7301566 0.33483583 1.5488 5.2540873e-39
0.74976832 0.33647147 1.55125 4.2431584e-39
0.76623362 0.33631638 1.5502 3.9676533e-39
0.78759289 0.3387019 1.553 3.3194014e-39
-0.33128572 0.34011999 1.546 1.4286347e-38
-0.19479762 0.34088999 1.5495 1.70281e-38
0.51680571 0.34011999 1.546 1.0879785e-38
0.68953198 0.34165999 1.553 8.7589183e-39
0.89570284 -0.44144955 1.5627999 3.3194e-39
0.91019207 -0.44372857 1.5648123 3.0428145e-39
0.9276107 -0.44511059 1.5701113 2.3981668e-39
0.79558688 0.21503083 1.5689093 4.332124e-39
0.80962563 0.21364136 1.5644727 3.8732997e-39
0.82183397 0.21178 1.5623333 3.8733011e-39
0.77800572 0.23535047 1.574 3.2272086e-39
0.79065365 0.22950827 1.5712297 3.3197657e-39
0.80571026 0.22988327 1.5623337 3.2286477e-39
0.77675891 0.24963133 1.5733002 2.7662304e-39
0.78950095 0.24970959 1.5696731 3.226847e-39
0.80899239 0.24933016 1.5637697 3.6907077e-39
0.82644236 0.25253218 1.5628 3.3201231e-39
0.78906792 0.26302326 1.5730002 4.6061788e-39
0.81931716 0.26116666 1.567 3.6885511e-39
-0.92079908 0.32981619 1.567 1.3826088e-38
-0.91526234 0.33099982 1.5698 1.3735329e-38
-0.88624412 0.3321532 1.5700002 1.3917572e-38
-0.87286103 0.33339068 1.5726002 1.3366554e-38
-0.84755129 0.33249375 1.5712003 1.2078681e-38
-0.83187568 0.33222127 1.5664614 1.2169805e-38
-0.80983567 0.33094794 1.5690587 1.2443874e-38
-0.79164708 0.3305518 1.5687498 1.2353477e-38
-0.76881993 0.3306016 1.5679331 1.2075818e-38
-0.74916857 0.32682639 1.567 1.1891792e-38
-0.72972095 0.32833046 1.5669999 1.2812303e-38
-0.71045762 0.33114582 1.5705003 1.3549148e-38
-0.68966657 0.33194438 1.567 1.2998488e-38
-0.67097145 0.33100459 1.5656 1.281266e-38
-0.62679332 0.33130023 1.567 1.2169455e-38
-0.6105898 0.33105445 1.5646667 1.2720112e-38
-0.59161115 0.33118325 1.5640833 1.2811587e-38
-0.56850821 0.33070514 1.5683999 1.2812309e-38
-0.54842359 0.33199626 1.5679332 1.281231e-38
-0.53083223 0.33223727 1.5678751 1.2536085e-38
-0.50742829 0.33379206 1.5716667 1.2627916e-38
-0.49042204 0.33578607 1.5695456 1.2719749e-38
-0.47122902 0.33304399 1.5658334 1.3272561e-38
-0.44833654 0.33373129 1.5678751 1.3272562e-38
-0.42845231 0.33612353 1.5675385 1.3087817e-38
-0.40966967 0.33440596 1.5659232 1.3363679e-38
-0.38739911 0.33320102 1.5650911 1.3456585e-38
-0.36795074 0.333689 1.5684 1.3733528e-38
-0.34907725 0.3352797 1.5673332 1.4378173e-38
-0.32973072 0.32658872 1.5680498 1.6847313e-38
-0.31150526 0.33079958 1.5670003 1.6757267e-38
-0.29588127 0.33229652 1.5646667 1.7306483e-38
-0.26703653 0.33528858 1.5693334 1.7215732e-38
-0.25191492 0.33375314 1.5665001 1.7122456e-38
-0.22137143 0.33428571 1.5599999 1.6846608e-38
-0.20862779 0.33677477 1.5646666 1.6663985e-38
-0.19037184 0.33449891 1.567 1.5386944e-38
-0.1705181 0.33279476 1.5705001 1.4748397e-38
-0.15635 0.33255064 1.5634999 1.4472171e-38
-0.12372929 0.33317214 1.56525 1.4566163e-38
-0.10744876 0.33518344 1.567 1.5117541e-38
-0.091164134 0.33752716 1.5693334 1.5301214e-38
-0.069371834 0.33615372 1.5664166 1.5208651e-38
-0.048203364 0.33358362 1.5674115 1.4563646e-38
-0.02986238 0.33588523 1.5675 1.4748755e-38
-0.012617403 0.33740771 1.567 1.484131e-38
0.019400952 0.33877048 1.567 1.5210093e-38
0.037142854 0.33428571 1.5599999 1.5025342e-38
0.049981363 0.33577758 1.5630001 1.4840956e-38
0.069724441 0.33727619 1.5693333 1.4749127e-38
0.092781425 0.33772108 1.5662999 1.4933876e-38
0.11034354 0.33482578 1.5676361 1.4840954e-38
0.12960517 0.33251819 1.5665624 1.4656213e-38
0.14880243 0.33103982 1.5638183 1.4656567e-38
0.1699087 0.33407444 1.567 1.447218e-38
0.19147429 0.33495322 1.5693336 1.4379986e-38
0.21369688 0.33258286 1.5660001 1.4564014e-38
0.22892505 0.33557963 1.5669999 1.4104473e-38
0.25055072 0.33466482 1.5675834 1.3736416e-38
0.26905984 0.3355476 1.564846 1.3552023e-38
0.29071993 0.33531147 1.5674372 1.3734614e-38
0.31039414 0.33456656 1.568 1.345839e-38
0.32614994 0.33401766 1.5663638 1.3275076e-38
0.35896808 0.33653572 1.5705 1.3366193e-38
0.37291428 0.33428571 1.5599999 1.3458027e-38
0.39034569 0.33676666 1.5623333 1.2905208e-38
0.40818527 0.33646131 1.5689093 1.253535e-38
0.43475786 0.33616072 1.56875 1.1616984e-38
0.45052674 0.33547673 1.5646664 1.1522635e-38
0.46472213 0.33607885 1.567 1.1430082e-38
0.51294094 0.33727697 1.5684 1.0787229e-38
0.53000087 0.33748749 1.567 1.1246404e-38
0.54978615 0.33616072 1.56875 1.1061299e-38
0.56646138 0.33652166 1.56525 1.0785429e-38
0.58855575 0.33716023 1.567 1.0600681e-38
0.61034125 0.33386615 1.5680001 1.0047502e-38
0.63130999 0.333915 1.5652502 9.4014221e-39
0.64315379 0.33428714 1.5704999 9.58474e-39
0.68964428 0.33795801 1.5695456 8.6656479e-39
0.70757109 0.33777431 1.5685557 7.7451378e-39
0.73433363 0.33690357 1.5687499 6.1778247e-39
0.75149512 0.3339124 1.5659497 4.6112192e-39
0.76837963 0.3333531 1.5669999 4.6119409e-39
0.78606653 0.33802336 1.5681667 3.8736556e-39
0.80319858 0.3380281 1.5705 3.13465e-39
0.91965711 0.33428571 1.5599999 3.5984966e-39
0.92411423 0.33428571 1.5599999 3.6892559e-39
-0.34914285 0.34022856 1.5599999 1.3644216e-38
-0.20651428 0.34022856 1.5599999 1.6936249e-38
-0.06982857 0.34022856 1.5599999 1.5301211e-38
0.007495238 0.34028381 1.574 1.4933512e-38
0.087657139 0.34022856 1.5599999 1.5668561e-38
0.28525713 0.34022856 1.5599999 1.4195589e-38
0.39724761 0.34028381 1.574 1.2813369e-38
0.42123237 0.34028381 1.574 1.2260556e-38
0.51702857 0.34022856 1.5599999 1.0603918e-38
0.5223133 0.34174192 1.5669999 1.0879066e-38
0.57794285 0.34022856 1.5599999 1.0509209e-38
0.59874284 0.34171426 1.5599999 1.0323374e-38
0.69386697 0.3402378 1.5623333 8.6652878e-39
0.70585406 0.34137022 1.56525 8.2046782e-39
0.79542565 0.34025618 1.5669999 3.3194014e-39
0.80218732 0.34024701 1.5646666 2.9506175e-39
0.91459328 -0.44358939 1.5865713 3.0424544e-39
0.93151635 -0.44276413 1.5883503 2.2130553e-39
0.94280666 -0.44038001 1.589 4.0695613e-39
0.93680829 -0.43803835 1.59425 2.6682811e-39
0.77232605 0.23614332 1.5875912 3.4112411e-39
0.78666723 0.22955298 1.5810001 3.4116012e-39
0.75780445 0.24911113 1.5959998 3.0424572e-39
0.76879334 0.24997999 1.5887501 2.9506203e-39
0.78146571 0.24242 1.581 3.0424572e-39
0.75493205 0.27459124 1.5929376 2.3970864e-39
0.77044624 0.26972079 1.5878301 4.3335575e-39
0.78559393 0.27232721 1.5855716 6.1774715e-39
0.75173658 0.28996286 1.5932956 3.2282834e-39
0.77009553 0.29013458 1.5893184 3.5027109e-39
0.78655517 0.29086301 1.5883603 4.7037778e-39
0.75341755 0.3096672 1.5925003 5.8097512e-39
0.76992011 0.30866781 1.5917226 5.8104757e-39
0.78678107 0.3064374 1.5922308 5.0729148e-39
-0.96378154 0.33336318 1.5886667 1.4010485e-38
-0.95612854 0.33276284 1.581 1.4010845e-38
-0.92897463 0.3307018 1.5921817 1.3366189e-38
-0.91060734 0.33143988 1.5930911 1.3642058e-38
-0.88931012 0.32882157 1.5886667 1.3274356e-38
-0.87109667 0.3318072 1.5901908 1.2446386e-38
-0.84917963 0.33097655 1.5868889 1.1708457e-38
-0.82764953 0.32980844 1.5854286 1.1983976e-38
-0.81131262 0.32845661 1.5880001 1.2076533e-38
-0.78848761 0.32928053 1.5879999 1.2077609e-38
-0.77341992 0.32918206 1.5865713 1.2076177e-38
-0.74860859 0.32729113 1.5836667 1.2535356e-38
-0.72523028 0.32847348 1.5831429 1.3088167e-38
-0.71062577 0.32909116 1.5892175 1.2904497e-38
-0.69292092 0.3306976 1.5880002 1.272011e-38
-0.67706954 0.32874763 1.5810001 1.308853e-38
-0.64608467 0.33438689 1.5887499 1.1801034e-38
-0.63026959 0.33012792 1.5900999 1.2077621e-38
-0.60529715 0.32975143 1.581 1.2536435e-38
-0.59109104 0.33217177 1.591 1.2812306e-38
-0.56626779 0.33209097 1.5898333 1.2996699e-38
-0.55040127 0.32968146 1.5891666 1.308854e-38
-0.53031272 0.33401093 1.5921817 1.272011e-38
-0.50847387 0.33381066 1.5915385 1.2811227e-38
-0.49054483 0.33480597 1.5907333 1.2996334e-38
-0.46901029 0.33308539 1.5907857 1.3457311e-38
-0.44863909 0.33377254 1.5896667 1.3456949e-38
-0.43155867 0.33370763 1.5875715 1.3639546e-38
-0.41024506 0.33332413 1.5836667 1.3547347e-38
-0.39160046 0.33278239 1.5835001 1.382428e-38
-0.3711307 0.33187139 1.5857501 1.4741558e-38
-0.35132775 0.33237919 1.5832858 1.5567715e-38
-0.31054464 0.32765684 1.5854445 1.7030975e-38
-0.29003111 0.33728001 1.5944443 1.7397602e-38
-0.27130848 0.33521277 1.5894443 1.7124618e-38
-0.24928744 0.33490953 1.5826 1.7215022e-38
-0.2297675 0.33743012 1.5923748 1.6214531e-38
-0.20931667 0.33821666 1.5925 1.5848651e-38
-0.19075505 0.3348743 1.5896 1.4839884e-38
-0.17034477 0.33308256 1.5873332 1.4379974e-38
-0.15809999 0.33276284 1.581 1.4104107e-38
-0.12616 0.33591998 1.5960001 1.4474323e-38
-0.10953923 0.33496189 1.5886 1.4934584e-38
-0.089871593 0.33536336 1.5900002 1.5117174e-38
-0.070439853 0.33541974 1.5892308 1.5207928e-38
-0.05433524 0.33360475 1.585 1.4470736e-38
-0.028697262 0.33454177 1.5858749 1.4287782e-38
-0.010378314 0.33730358 1.5926154 1.4563287e-38
0.01229067 0.33345571 1.5898534 1.4472169e-38
0.028486142 0.33633977 1.59085 1.4655842e-38
0.050638754 0.33703497 1.5891539 1.4564007e-38
0.071444504 0.33572209 1.589053 1.465657e-38
0.088412628 0.33595437 1.5899568 1.4473255e-38
0.11096191 0.33286303 1.5915998 1.4287423e-38
0.1262596 0.33241221 1.5917144 1.4379986e-38
0.17772953 0.33582288 1.586 1.4655493e-38
0.19043247 0.33480024 1.5880908 1.4288507e-38
0.20754561 0.33592176 1.5906248 1.437999e-38
0.23248538 0.33538032 1.5886667 1.4288504e-38
0.25056633 0.33503532 1.590222 1.4104118e-38
0.27059817 0.33285391 1.5902778 1.3644216e-38
0.28971514 0.33564246 1.5899166 1.3734254e-38
0.30935678 0.33121186 1.5869232 1.364278e-38
0.32745722 0.33452752 1.5894443 1.3458749e-38
0.34932014 0.33777386 1.5895627 1.3182881e-38
0.36605448 0.33769888 1.5948333 1.3365833e-38
0.3931354 0.33802357 1.5885717 1.3089243e-38
0.41058668 0.33389494 1.5881176 1.2627545e-38
0.42936593 0.33684734 1.587765 1.2076165e-38
0.4489378 0.33422956 1.5880002 1.1430798e-38
0.46982145 0.33552715 1.5887499 1.1521557e-38
0.48789996 0.33887285 1.5885 1.1338609e-38
0.51213682 0.33675709 1.5910001 1.0602483e-38
0.52897334 0.33509144 1.5904119 1.0601758e-38
0.54782248 0.33764249 1.5933748 1.0509929e-38
0.57173282 0.3370339 1.5891539 1.0508489e-38
0.58909684 0.33600223 1.5906668 1.0140426e-38
0.60717005 0.33771002 1.5925 1.0140065e-38
0.63467807 0.33551523 1.5905 9.1259086e-39
0.64989454 0.33535928 1.5897499 9.4003459e-39
0.66670477 0.33890188 1.591 9.4028542e-39
0.69216555 0.3365365 1.5859092 8.204674e-39
0.70888329 0.33661276 1.5864 7.5596703e-39
0.72987431 0.33858624 1.59 7.0086545e-39
0.75112367 0.33062908 1.5917588 5.9015867e-39
0.76898193 0.32725823 1.5931307 4.7966895e-39
0.79286349 0.33698708 1.58675 4.1505984e-39
0.8091042 0.33569965 1.5902085 3.2275645e-39
0.82703745 0.3368825 1.5933748 2.0286598e-39
0.84055996 0.33895999 1.596 3.5959841e-39
0.93978 0.33747333 1.589 3.6888986e-39
0.94308931 0.33683866 1.5946 3.596347e-39
-0.28665665 0.34125 1.5925 1.7767456e-38
-0.27996665 0.3405 1.589 1.7400112e-38
-0.24213333 0.3405 1.589 1.7032057e-38
-0.23478265 0.34291598 1.5946 1.6939503e-38
-0.0015095237 0.34114856 1.585 1.4749118e-38
0.0085400008 0.34186921 1.5836667 1.4933509e-38
0.35260665 0.3405 1.589 1.3275072e-38
0.38741332 0.3405 1.589 1.3090681e-38
0.42611712 0.34179714 1.581 1.1985408e-38
0.48275334 0.3405 1.589 1.1430442e-38
0.68251336 0.3405 1.589 9.128061e-39
0.73403549 0.34201333 1.5913334 7.101569e-39
0.81459141 0.34179717 1.5810001 2.6740306e-39
0.82623041 0.34098637 1.5859998 2.2116175e-39
0.92973602 -0.44363445 1.6118335 2.7662276e-39
0.9432416 -0.44264287 1.6156667 2.5814748e-39
0.93535811 -0.43917143 1.618 2.7662304e-39
0.94614476 -0.43917143 1.618 1.4740609e-39
0.75875342 0.25190005 1.603 2.8580645e-39
0.73654741 0.29707882 1.61625 4.7051861e-39
0.74376166 0.29284805 1.6099001 3.228991e-39
-0.9282428 0.31759712 1.6109999 1.2904133e-38
0.73807466 0.31748983 1.6156667 5.6224887e-39
0.74505538 0.31024379 1.6102002 5.9927019e-39
0.78709984 0.31661144 1.6060002 5.9955844e-39
-0.98312765 0.33438668 1.618 1.4377105e-38
-0.97328401 0.33349022 1.6115716 1.3734255e-38
-0.94675672 0.33040273 1.609875 1.2997408e-38
-0.92900115 0.32539085 1.6086 1.2904499e-38
-0.91273451 0.32586515 1.6089166 1.2260212e-38
-0.89089406 0.32507724 1.6090001 1.2260567e-38
-0.86978048 0.32835567 1.6096001 1.1614475e-38
-0.85197657 0.33271948 1.614 1.1708108e-38
-0.8309837 0.32708097 1.610077 1.1984695e-38
-0.81225789 0.32997382 1.6115 1.1983983e-38
-0.78808933 0.32875431 1.6088889 1.2076173e-38
-0.77075821 0.33027694 1.6096666 1.2258771e-38
-0.7473619 0.33438668 1.618 1.2904852e-38
-0.70878822 0.32805648 1.6064285 1.2811586e-38
-0.69440097 0.32884571 1.6059999 1.2995618e-38
-0.665461 0.33261228 1.6137145 1.2261647e-38
-0.65279961 0.33259526 1.6093636 1.1985784e-38
-0.63662004 0.32823333 1.603 1.2169456e-38
-0.60818493 0.33170679 1.6106249 1.2628275e-38
-0.59223288 0.33001846 1.6131904 1.3089607e-38
-0.57164538 0.33092788 1.6092001 1.3181088e-38
-0.54812467 0.33052897 1.6107694 1.3458393e-38
-0.53022802 0.33275855 1.610154 1.3271845e-38
-0.50840783 0.33262748 1.6094999 1.299562e-38
-0.48958573 0.33233258 1.6047777 1.3180005e-38
-0.46828225 0.33055535 1.6068749 1.3641336e-38
-0.45213205 0.33022577 1.6085001 1.39154e-38
-0.43082532 0.332508 1.603 1.3915408e-38
-0.41004583 0.33509344 1.6098889 1.3548056e-38
-0.38877881 0.33414668 1.6062857 1.4557169e-38
-0.36623842 0.33463675 1.6128572 1.6021508e-38
-0.35328752 0.33440506 1.6138572 1.6571799e-38
-0.30634257 0.33286065 1.6056666 1.7306842e-38
-0.2884846 0.33511242 1.6106668 1.7031344e-38
-0.27101633 0.33373892 1.6117142 1.6487887e-38
-0.2509217 0.33745164 1.6097778 1.6579014e-38
-0.2295512 0.33617231 1.6069168 1.5575648e-38
-0.21082199 0.337219 1.6119169 1.5023558e-38
-0.18993305 0.33421406 1.6082999 1.4379981e-38
-0.16951953 0.33594906 1.6131667 1.4011551e-38
-0.12700444 0.33591208 1.6130002 1.4103031e-38
-0.11124524 0.33475685 1.6111667 1.4656202e-38
-0.088619135 0.33393404 1.6098999 1.4471092e-38
-0.072437018 0.33418253 1.6096249 1.4285986e-38
-0.048177753 0.33510065 1.6133636 1.4102675e-38
-0.02915661 0.33103222 1.61132 1.4195586e-38
-0.010174285 0.33342025 1.6100001 1.419666e-38
0.0034377382 0.33225894 1.605875 1.4380329e-38
0.033754654 0.33175704 1.6053078 1.4287421e-38
0.048951346 0.33650422 1.6107273 1.4287422e-38
0.070942268 0.33324251 1.6106249 1.3919367e-38
0.089448102 0.33237633 1.6083001 1.4011204e-38
0.10600588 0.3344081 1.6131667 1.4103392e-38
0.13040692 0.33403715 1.61075 1.4379269e-38
0.1482362 0.33646828 1.6156667 1.4564376e-38
0.16687553 0.33837706 1.6118572 1.4472539e-38
0.1898775 0.33594203 1.6143751 1.4472176e-38
0.20881675 0.33502609 1.6122 1.4380708e-38
0.23412494 0.33811197 1.6152 1.4380698e-38
0.24866343 0.33748981 1.6160001 1.4379267e-38
0.27022001 0.33357665 1.603 1.3919723e-38
0.2896252 0.33374199 1.60625 1.3735329e-38
0.30228001 0.33128667 1.603 1.3826448e-38
0.33907714 0.33907714 1.6109999 1.3367631e-38
0.35172141 0.33572373 1.6107144 1.3091761e-38
0.3701829 0.33596423 1.6118573 1.3366547e-38
0.38894349 0.33799225 1.6131667 1.3273993e-38
0.40536818 0.33378303 1.6062001 1.2628625e-38
0.43102607 0.33438548 1.6105999 1.2075807e-38
0.44687057 0.33407551 1.6091 1.1246412e-38
0.47233593 0.33507916 1.6131111 1.1245691e-38
0.48863187 0.33546704 1.6114002 1.1153136e-38
0.50860167 0.33593959 1.6123334 1.0417377e-38
0.52883196 0.33205584 1.6048748 1.004895e-38
0.54982132 0.33634225 1.612625 9.9578343e-39
0.57002181 0.33727083 1.6078749 1.0233342e-38
0.59058696 0.33361095 1.6093335 1.0230465e-38
0.61131865 0.33730465 1.6123333 9.7712878e-39
0.62741929 0.33846453 1.61175 9.5872469e-39
0.64874101 0.33746856 1.618 9.033713e-39
0.66978091 0.33841869 1.6108 9.3092265e-39
0.69272536 0.33795461 1.6056666 8.2957934e-39
0.71002334 0.33588549 1.60675 7.2841596e-39
0.73366845 0.33521509 1.6111053 6.639872e-39
0.74587864 0.32768342 1.6076287 6.1785323e-39
0.78909194 0.32902259 1.6132858 4.9821583e-39
0.80917895 0.33379525 1.6091999 3.7821746e-39
0.83155614 0.33469483 1.6079999 2.3052509e-39
0.84424675 0.33739337 1.603 3.4112383e-39
0.9519043 0.33415923 1.6094999 3.5956338e-39
-0.28854001 0.34350002 1.603 1.785965e-38
-0.22136667 0.34044668 1.603 1.6309618e-38
-0.21256819 0.34237891 1.6150001 1.5757533e-38
0.15871809 0.34055048 1.618 1.4564733e-38
0.17104572 0.34055048 1.618 1.4564014e-38
0.37403333 0.34044668 1.603 1.3458028e-38
0.38166666 0.34044668 1.603 1.336655e-38
0.49082336 0.34044668 1.603 1.1246414e-38
0.68697828 0.34195143 1.6130002 8.7574876e-39
0.73432666 0.34044668 1.603 6.9171778e-39
0.93500388 -0.44345027 1.6292 2.6736733e-39
0.94772696 -0.44175047 1.6313334 2.304532e-39
0.93998289 -0.43824571 1.626 2.8580617e-39
0.94306099 -0.43760824 1.6313334 2.0308234e-39
-0.86057329 0.31901905 1.6339999 1.1891776e-38
-0.85746092 0.31901905 1.6339999 1.1983254e-38
0.74176574 0.31436002 1.626 5.8079547e-39
-0.98605001 0.33011237 1.6296923 1.3639546e-38
-0.97102416 0.33403239 1.6313334 1.2997052e-38
-0.95016849 0.32587838 1.6282859 1.2720459e-38
-0.93378866 0.32365143 1.6260002 1.2628269e-38
-0.91675431 0.32674858 1.626 1.2259492e-38
-0.89325333 0.32835618 1.6339999 1.1893944e-38
-0.86737686 0.3272931 1.6308 1.1707751e-38
-0.85458583 0.32820562 1.6281335 1.189142e-38
-0.82601589 0.33092761 1.6313334 1.1891426e-38
-0.809219 0.33146855 1.6339999 1.2167292e-38
-0.7876662 0.32965195 1.6294287 1.2259124e-38
-0.76965982 0.33096686 1.63 1.2442442e-38
-0.7508381 0.33035466 1.6316 1.281122e-38
-0.72341335 0.33065712 1.63 1.2535719e-38
-0.70150286 0.32984573 1.626 1.3087454e-38
-0.68316758 0.33146855 1.6339999 1.3087448e-38
-0.66979998 0.3316792 1.6328571 1.2445683e-38
-0.65504575 0.33294287 1.626 1.2261646e-38
-0.63335526 0.33335239 1.628 1.2537158e-38
-0.61210096 0.33074966 1.6282859 1.2997053e-38
-0.58935243 0.32695588 1.6297648 1.3458746e-38
-0.57522666 0.32947335 1.628 1.3458389e-38
-0.54953396 0.33065712 1.6300001 1.3643855e-38
-0.53195554 0.33220574 1.63 1.3365473e-38
-0.51877147 0.33604002 1.626 1.2718318e-38
-0.4923524 0.33454514 1.6308001 1.3364392e-38
-0.4682419 0.33102572 1.628 1.4101578e-38
-0.45485523 0.33220571 1.63 1.4192694e-38
-0.42656234 0.33506727 1.6313332 1.4280941e-38
-0.41148725 0.33483544 1.6292 1.4188024e-38
-0.3924337 0.33555365 1.6286668 1.5103133e-38
-0.36933833 0.33392265 1.6308001 1.6479601e-38
-0.35476235 0.33261523 1.632 1.6570008e-38
-0.30427048 0.33686668 1.63 1.7213577e-38
-0.28912997 0.33337095 1.63 1.5569527e-38
-0.27043456 0.33254504 1.6305715 1.4563656e-38
-0.25241563 0.33717334 1.6300001 1.539126e-38
-0.22609143 0.33604002 1.626 1.5208662e-38
-0.21023104 0.33477551 1.6317146 1.4379266e-38
-0.19482571 0.33531046 1.63 1.4104111e-38
-0.14674433 0.33849543 1.6295557 1.3733887e-38
-0.12998642 0.33465132 1.6313335 1.3733889e-38
-0.11229953 0.33378047 1.632 1.4379256e-38
-0.089592114 0.33413634 1.6340001 1.428706e-38
-0.069218665 0.33545637 1.6292 1.4010838e-38
-0.048763607 0.33069125 1.6293685 1.4103033e-38
-0.034068573 0.32791001 1.6260002 1.4010123e-38
-0.015561905 0.33146855 1.6339999 1.4195584e-38
0.038714286 0.33294287 1.626 1.4379257e-38
0.048106942 0.33585933 1.6294287 1.4286704e-38
0.070596188 0.33355334 1.6290001 1.4011199e-38
0.091598094 0.3337619 1.63 1.4103035e-38
0.10426476 0.33769333 1.6339999 1.4103392e-38
0.13850094 0.33458093 1.6339999 1.4471461e-38
0.15110578 0.33443889 1.629765 1.4472901e-38
0.16995619 0.33716497 1.6303077 1.4564375e-38
0.19041264 0.33524832 1.6303638 1.4472535e-38
0.20719352 0.33454514 1.6308001 1.4472182e-38
0.22764 0.33913717 1.626 1.4381418e-38
0.25001007 0.33698478 1.6305716 1.4471104e-38
0.26480573 0.33604002 1.626 1.4379625e-38
0.29353791 0.33392569 1.6308001 1.3828965e-38
0.30352002 0.33294287 1.626 1.3828602e-38
0.33913717 0.33913717 1.626 1.3367629e-38
0.35282665 0.33572379 1.632 1.2907729e-38
0.37175304 0.33314139 1.6286668 1.2997764e-38
0.39012241 0.33594131 1.6296364 1.3089962e-38
0.4064301 0.3357482 1.6276001 1.2537508e-38
0.42933398 0.33610475 1.6313334 1.2350599e-38
0.44680268 0.33487272 1.6323999 1.1338605e-38
0.4715327 0.33504003 1.6286668 1.1062018e-38
0.48879954 0.33126703 1.6274546 1.0416649e-38
0.50560862 0.33371714 1.626 1.0325176e-38
0.53711998 0.3337619 1.63 9.7734388e-39
0.55332381 0.33572379 1.632 9.7730829e-39
0.56987429 0.33913717 1.6260002 9.957121e-39
0.59112346 0.33299199 1.6308001 1.0138984e-38
0.61285144 0.33611771 1.6323999 9.9542399e-39
0.63112336 0.33626345 1.6304444 9.4950555e-39
0.64887303 0.33762351 1.6286668 9.0340717e-39
0.66898286 0.33913717 1.626 9.3085048e-39
0.6926319 0.33819789 1.6296363 8.8485986e-39
0.70419312 0.33827087 1.6308001 7.9280843e-39
0.73505211 0.33452126 1.6286669 6.6395091e-39
0.74203432 0.32754856 1.63 5.8076002e-39
0.79751432 0.3329429 1.6260002 4.7974098e-39
0.80762136 0.33083045 1.6294289 4.7037736e-39
0.8263371 0.33380285 1.6339999 3.50415e-39
0.85016572 0.33810481 1.6260002 2.0283137e-39
0.96558094 0.33220571 1.63 3.5041542e-39
-0.15717523 0.34080571 1.6339999 1.39172e-38
0.34391809 0.34080571 1.6339999 1.3367629e-38
0.6800552 0.34080571 1.6339999 9.217391e-39
0.93927717 -0.44228858 1.641 2.7655102e-39
0.9424029 -0.44228858 1.641 2.8577044e-39
-1.0052466 0.32508761 1.6569999 1.2717596e-38
-0.989025 0.3298021 1.6504118 1.271831e-38
-0.97343093 0.33040592 1.6503334 1.2443875e-38
-0.95013809 0.32665908 1.649 1.2811576e-38
-0.92769408 0.32777867 1.649 1.253679e-38
-0.91529518 0.3266657 1.6569999 1.2259487e-38
-0.89000702 0.3286739 1.649 1.1707749e-38
-0.87197018 0.32288915 1.6426001 1.1891057e-38
-0.84936327 0.32822597 1.647 1.1982538e-38
-0.82831979 0.33058783 1.6521111 1.1982538e-38
-0.80986184 0.32855991 1.6515262 1.2168001e-38
-0.79417419 0.3280248 1.648 1.253427e-38
-0.76718903 0.33058906 1.649 1.2167294e-38
-0.74952704 0.32927558 1.6426845 1.2719745e-38
-0.73397511 0.33082461 1.6450002 1.2628991e-38
-0.71699238 0.33177239 1.651 1.2903783e-38
-0.68600684 0.32945153 1.6516665 1.2903781e-38
-0.66878259 0.3289687 1.649 1.2721542e-38
-0.65174079 0.33452934 1.6522 1.2537513e-38
-0.63177264 0.33592132 1.6475455 1.2721189e-38
-0.61732858 0.32976288 1.641 1.3366553e-38
-0.58852136 0.32507715 1.6425999 1.3915404e-38
-0.57174546 0.32979017 1.6463332 1.3551656e-38
-0.54702955 0.33072743 1.6458 1.3734967e-38
-0.52942413 0.33394992 1.6495715 1.3456944e-38
-0.51193672 0.3360962 1.6511819 1.3641335e-38
-0.49077353 0.33608934 1.6506001 1.3456586e-38
-0.44925961 0.33609542 1.6505998 1.428238e-38
-0.43083411 0.33341125 1.6498002 1.574527e-38
-0.41026145 0.33362928 1.6505001 1.592463e-38
-0.38982213 0.3340821 1.6512222 1.6384523e-38
-0.37242541 0.33266795 1.6476667 1.6113336e-38
-0.35696349 0.33187652 1.6463335 1.6112266e-38
-0.32035333 0.33929047 1.6569999 1.6756549e-38
-0.30830255 0.33767566 1.6525553 1.5655965e-38
-0.28975475 0.33254641 1.6489999 1.4378899e-38
-0.26960179 0.33223796 1.6444286 1.4013003e-38
-0.24769168 0.33707577 1.649 1.4747329e-38
-0.22997132 0.33562884 1.6489999 1.4655491e-38
-0.20945723 0.33163023 1.6446364 1.382681e-38
-0.19000936 0.33608192 1.6489998 1.3640979e-38
-0.17012794 0.33601961 1.6532104 1.3548778e-38
-0.15046984 0.33330604 1.6456665 1.3456584e-38
-0.13027243 0.32877818 1.6418424 1.3641697e-38
-0.11035309 0.33244964 1.6495 1.4563286e-38
-0.089416191 0.3341057 1.6470001 1.4379256e-38
-0.066856995 0.33583385 1.6516666 1.4011557e-38
-0.056403808 0.33212954 1.645 1.4012633e-38
0.039261907 0.33451143 1.649 1.4379257e-38
0.048851907 0.33383521 1.6456668 1.4379257e-38
0.064315245 0.33566859 1.6470001 1.4103752e-38
0.093458474 0.33515444 1.6522 1.4195226e-38
0.10931429 0.33540452 1.6515 1.3919718e-38
0.12934402 0.33622608 1.6481999 1.4195238e-38
0.14988816 0.33206847 1.6489999 1.4381062e-38
0.17134961 0.33317766 1.6489999 1.438106e-38
0.187107 0.33359954 1.651 1.4289221e-38
0.21759713 0.33609432 1.6516666 1.4381421e-38
0.22919208 0.33620399 1.6506002 1.4380701e-38
0.24908753 0.33658871 1.6472222 1.4563656e-38
0.26226953 0.33765239 1.649 1.456366e-38
0.29031974 0.33589217 1.6500001 1.4011194e-38
0.30310193 0.33451143 1.649 1.3825732e-38
0.33683336 0.33917761 1.645 1.327651e-38
0.34682304 0.3392604 1.6538 1.3092476e-38
0.36906192 0.33451143 1.649 1.2355274e-38
0.39239472 0.33540449 1.6489999 1.2996692e-38
0.40963617 0.3354896 1.6468182 1.2260567e-38
0.4300096 0.33678234 1.6498888 1.1891063e-38
0.44727117 0.33472833 1.6478572 1.1337889e-38
0.47184128 0.33598199 1.6507143 1.0877628e-38
0.55123717 0.33765239 1.649 9.6816019e-39
0.57140505 0.33907872 1.6483333 9.7730885e-39
0.58897471 0.33506885 1.6475455 9.7716452e-39
0.61006624 0.33493865 1.6467143 1.0230463e-38
0.62977773 0.3343161 1.6463333 9.587614e-39
0.65081251 0.33404091 1.6494708 9.1262687e-39
0.66890669 0.33690581 1.6484667 8.9404397e-39
0.69036019 0.33763611 1.6477695 8.848956e-39
0.71022511 0.33607656 1.6496154 7.5600164e-39
0.73092049 0.3377575 1.6505001 6.5483854e-39
0.74372894 0.33233505 1.6537999 5.6250054e-39
0.81529045 0.32872099 1.6410002 4.7956021e-39
0.83048713 0.33313429 1.65 3.7807327e-39
0.85041505 0.33680373 1.6496154 2.4896407e-39
0.8684783 0.33823842 1.6569999 2.4903638e-39
0.88215518 0.33613425 1.6569999 4.3367861e-39
0.9744705 0.33056667 1.645 3.4119586e-39
0.98315328 0.32982188 1.6569999 3.3194028e-39
-0.44130382 0.34079334 1.649 1.4190915e-38
-0.23557144 0.34079334 1.649 1.502571e-38
-0.18060477 0.34079334 1.649 1.4010115e-38
-0.16741277 0.34142157 1.649 1.3826442e-38
0.32980001 0.34079334 1.649 1.364314e-38
0.3439343 0.34079334 1.649 1.327615e-38
0.67984289 0.34226573 1.641 9.3092251e-39
0.68158668 0.34079334 1.649 9.1251897e-39
0.73027146 0.34079334 1.649 6.8249765e-39
0.87074864 0.34263939 1.6503334 3.1368164e-39
0.88215518 0.34244666 1.6569999 4.611215e-39
-1.00858 0.31707332 1.673 1.3721316e-38
-0.99264669 0.31707332 1.6730001 1.3353601e-38
-0.97838569 0.31872857 1.665 1.3176034e-38
-0.90760285 0.31790096 1.6689999 1.31728e-38
-0.82536602 0.31711969 1.6676667 1.335612e-38
-0.81664288 0.31746 1.665 1.3357911e-38
-1.0072486 0.32591921 1.6693637 1.2809789e-38
-0.99115729 0.32402113 1.6692355 1.2717224e-38
-0.97797137 0.3238762 1.6669999 1.2535702e-38
-0.94652736 0.32929429 1.6703333 1.253679e-38
-0.93575424 0.32942572 1.6709999 1.2628981e-38
-0.90918773 0.32843944 1.6703334 1.2166208e-38
-0.89573854 0.32505581 1.6681999 1.2073651e-38
-0.86506224 0.32664919 1.6676667 1.2258401e-38
-0.85051781 0.33035332 1.6685555 1.1982896e-38
-0.83194244 0.32369223 1.6684288 1.2809774e-38
-0.81260651 0.32362986 1.665 1.281085e-38
-0.79273367 0.33248603 1.6703333 1.2442797e-38
-0.77541429 0.32982856 1.665 1.2168371e-38
-0.73196995 0.33141378 1.669 1.2996696e-38
-0.7185933 0.33619332 1.673 1.3088172e-38
-0.68505859 0.32625476 1.6669999 1.2993813e-38
-0.66679955 0.32690823 1.669 1.3177476e-38
-0.65124297 0.33103225 1.6691908 1.3180357e-38
-0.63406575 0.33229408 1.6676668 1.318216e-38
-0.60546666 0.32982001 1.673 1.3179641e-38
-0.58953333 0.32982001 1.673 1.3088883e-38
-0.56927145 0.3345857 1.665 1.3734971e-38
-0.54812121 0.33101568 1.6669999 1.4005796e-38
-0.52835238 0.33220741 1.669 1.4095476e-38
-0.51260227 0.33379635 1.6674 1.3823923e-38
-0.49157143 0.33775714 1.665 1.3822489e-38
-0.46461427 0.33458573 1.665 1.5104944e-38
-0.44915369 0.33415627 1.6686363 1.5651625e-38
-0.42882243 0.33232039 1.6650001 1.5833155e-38
-0.40907392 0.32995725 1.6670002 1.5282865e-38
-0.39377069 0.33053029 1.6694444 1.5283943e-38
-0.36840525 0.33340141 1.6709999 1.5103509e-38
-0.34996569 0.33724698 1.6703336 1.5929674e-38
-0.32982621 0.33675539 1.667182 1.5654883e-38
-0.31141907 0.33525175 1.6683334 1.4281305e-38
-0.28995183 0.33014455 1.6660669 1.40094e-38
-0.27095336 0.3346003 1.6703333 1.4013719e-38
-0.25019524 0.33635902 1.6685556 1.4653698e-38
-0.23100172 0.33395407 1.6681999 1.4286707e-38
-0.21407142 0.33141428 1.665 1.3825731e-38
-0.18933064 0.33079559 1.6705389 1.354735e-38
-0.17143334 0.32929996 1.6650003 1.3456228e-38
-0.15698572 0.33141428 1.665 1.3272194e-38
-0.10898723 0.33077657 1.6681999 1.4746601e-38
-0.0999 0.3345857 1.665 1.4471452e-38
-0.069729932 0.33459172 1.6695714 1.4103751e-38
0.053064123 0.33539173 1.6716666 1.4563644e-38
0.069476508 0.33883905 1.6703333 1.4195588e-38
0.093851745 0.33406669 1.6703334 1.4287416e-38
0.11065306 0.33084613 1.6667143 1.3550933e-38
0.12925729 0.33595523 1.6695715 1.4195949e-38
0.1434 0.33619332 1.673 1.4288865e-38
0.17125714 0.33141428 1.665 1.42885e-38
0.19187143 0.33458573 1.665 1.4196671e-38
0.21195714 0.33564287 1.665 1.4379982e-38
0.22992857 0.33322653 1.6650001 1.4288501e-38
0.2500304 0.3359403 1.6705388 1.4287785e-38
0.26944375 0.33608326 1.6714003 1.4195947e-38
0.28796199 0.33545238 1.6705388 1.3826082e-38
0.30555618 0.33658808 1.6709999 1.299921e-38
0.33778667 0.33778667 1.673 1.2632224e-38
0.34844616 0.33799741 1.6684288 1.2632578e-38
0.37073728 0.33664232 1.6707143 1.226308e-38
0.38824224 0.33619332 1.6730001 1.2535357e-38
0.41009331 0.33538949 1.669 1.2076179e-38
0.43105876 0.33574551 1.6679091 1.1614837e-38
0.44919449 0.3349072 1.6666001 1.1520843e-38
0.46822837 0.3359814 1.668 1.0969824e-38
0.48437333 0.33619332 1.673 1.0691797e-38
0.51624 0.33938 1.673 1.0139706e-38
0.53058004 0.33858332 1.673 1.0047152e-38
0.54792964 0.33867186 1.6730001 9.6801656e-39
0.57214701 0.33883905 1.6703334 9.5886972e-39
0.58829999 0.33712286 1.665 9.5890532e-39
0.61673903 0.33538949 1.6689999 1.023082e-38
0.62714994 0.33617142 1.665 9.8631233e-39
0.64931095 0.33221045 1.6689999 9.1273519e-39
0.66758502 0.33395407 1.6681999 8.9415215e-39
0.6934166 0.33677235 1.668 7.9287989e-39
0.70971662 0.33419639 1.6690001 6.2689273e-39
0.72921729 0.33458683 1.6663336 5.1661699e-39
0.74429166 0.33379808 1.669 4.888162e-39
0.83884281 0.3345857 1.665 3.5967072e-39
0.8526603 0.33565745 1.6703334 2.9506189e-39
0.87129414 0.33537921 1.6658001 2.6725971e-39
0.8836959 0.33594492 1.6650001 3.9687239e-39
-0.25529999 0.34092855 1.665 1.5023196e-38
0.02868 0.34256667 1.673 1.4287426e-38
0.27212667 0.3429538 1.6709999 1.4287788e-38
0.28067142 0.34092855 1.665 1.4012273e-38
0.32981122 0.34191141 1.6698 1.3368708e-38
0.35837144 0.34092855 1.665 1.2816251e-38
0.53209925 0.34191141 1.6698 1.0140069e-38
0.54863775 0.34256667 1.6730001 9.8645582e-39
0.88165712 0.34251428 1.665 3.7828991e-39
1.00748 0.17303428 1.698 2.3963675e-39
0.9977771 0.19567429 1.698 1.7510023e-39
1.0047847 0.19378762 1.698 2.8573485e-39
0.99615991 0.20537715 1.698 3.9640463e-39
1.0047078 0.20445305 1.6980001 3.7818131e-39
-0.92338854 0.31534284 1.698 1.3262837e-38
-1.0204171 0.32342857 1.698 1.3449394e-38
-1.0144928 0.32374153 1.6946 1.3173889e-38
-0.96541238 0.33145571 1.6895 1.2720462e-38
-0.94986278 0.32991162 1.6928183 1.2719739e-38
-0.92689949 0.32578865 1.6890001 1.2716499e-38
-0.91274422 0.32504565 1.6850001 1.2439196e-38
-0.868922 0.32784003 1.6927274 1.2993442e-38
-0.85335386 0.32754108 1.6847142 1.2808693e-38
-0.80315238 0.33317143 1.6900001 1.2534277e-38
-0.79339218 0.33369422 1.6876924 1.2351322e-38
-0.7629143 0.33317143 1.6900001 1.2814091e-38
-0.74745911 0.33143619 1.6866667 1.3089243e-38
-0.72940272 0.33168674 1.6906875 1.3271118e-38
-0.71277922 0.3342838 1.6875499 1.3454431e-38
-0.66372168 0.32458368 1.6980001 1.5008072e-38
-0.65193307 0.32851148 1.6909165 1.3631987e-38
-0.63130891 0.33353174 1.6810001 1.3364391e-38
-0.60984379 0.33073333 1.694 1.4096195e-38
-0.58532631 0.33630964 1.689625 1.3275429e-38
-0.56964856 0.33390093 1.6896667 1.3728859e-38
-0.55185008 0.33208179 1.690625 1.4460657e-38
-0.53155792 0.33177543 1.6862 1.5283948e-38
-0.50762939 0.33618337 1.6903332 1.4829795e-38
-0.49034575 0.33624849 1.692737 1.5193899e-38
-0.46896505 0.33515817 1.6887 1.6017548e-38
-0.45453858 0.33473158 1.6925 1.5740229e-38
-0.43121666 0.33467382 1.6895 1.5649851e-38
-0.40893525 0.33047304 1.6926668 1.2716146e-38
-0.38897055 0.33326352 1.6905001 1.4093315e-38
-0.3706674 0.33488116 1.6914444 1.4094396e-38
-0.34929827 0.33439973 1.6873637 1.2811217e-38
-0.32834074 0.33197889 1.6911303 1.3086007e-38
-0.31230509 0.33035377 1.6929501 1.3455509e-38
-0.29270285 0.33259237 1.698 1.345803e-38
-0.26934466 0.33589637 1.6908001 1.4104836e-38
-0.2486576 0.3344844 1.6929232 1.4470021e-38
-0.23427096 0.3323212 1.6877501 1.3918286e-38
-0.20406574 0.33023381 1.6851538 1.3640625e-38
-0.19797143 0.32673335 1.6900001 1.3823934e-38
-0.10911976 0.33384407 1.68525 1.4470375e-38
-0.090649739 0.33808276 1.6895555 1.4379616e-38
-0.074994475 0.33634725 1.6898001 1.4287781e-38
-0.030700952 0.33838952 1.696 1.4010126e-38
-0.0077636358 0.33795327 1.692 1.4103384e-38
0.0092161037 0.33763036 1.6889091 1.3920074e-38
0.02898857 0.33859715 1.6913999 1.4287419e-38
0.046562545 0.3378616 1.6866667 1.4379616e-38
0.07075575 0.33720034 1.6908668 1.4379975e-38
0.089544289 0.33457538 1.689 1.3918638e-38
0.10324952 0.33073333 1.694 1.189538e-38
0.13179004 0.33494884 1.6857272 1.4194863e-38
0.14704429 0.33468187 1.6875 1.4103029e-38
0.16897428 0.33467382 1.6895 1.4195226e-38
0.20588744 0.33755526 1.6862 1.4197027e-38
0.23694095 0.33139715 1.681 1.3920441e-38
0.25093704 0.33285871 1.683 1.3920081e-38
0.27064431 0.3305234 1.6861765 1.3643133e-38
0.2881642 0.33359867 1.6921999 1.3273992e-38
0.31005272 0.33687916 1.6906668 1.2263445e-38
0.33101928 0.33706263 1.6913751 1.2814457e-38
0.34984183 0.33616531 1.6889166 1.2447111e-38
0.37001613 0.336101 1.6907333 1.2170524e-38
0.39020276 0.33502382 1.6907334 1.2351685e-38
0.40805361 0.33679107 1.6897146 1.1985061e-38
0.43063205 0.33469707 1.6882501 1.1431165e-38
0.45067236 0.33376929 1.6839998 1.1520481e-38
0.46913224 0.33470964 1.6865386 1.1060581e-38
0.48650703 0.33631906 1.6896667 1.0600323e-38
0.51158261 0.33721784 1.6884285 1.0137908e-38
0.53018618 0.33604586 1.688316 9.8620373e-39
0.55181229 0.33661136 1.6862999 9.494338e-39
0.5690648 0.33697033 1.6908002 9.4028668e-39
0.58974642 0.33789888 1.6901537 9.6805313e-39
0.60660261 0.33673882 1.69175 9.6798069e-39
0.63217145 0.3361848 1.689 9.8634792e-39
0.64558077 0.33435875 1.6897694 9.4032228e-39
0.67079902 0.33459905 1.681 8.9415244e-39
0.69128174 0.33707771 1.6867499 8.2043138e-39
0.71195602 0.33382958 1.6889093 5.2533404e-39
0.72948998 0.33370546 1.69275 3.7782089e-39
0.74576581 0.33252224 1.684 3.8722165e-39
0.85278672 0.3369213 1.6926668 3.5037885e-39
0.87003273 0.33612508 1.6886667 2.3048893e-39
0.89196861 0.33427954 1.6875 3.7814558e-39
-0.091551118 0.34107429 1.6866667 1.4379256e-38
-0.0064038099 0.34100285 1.681 1.3921149e-38
0.0080047622 0.34100285 1.681 1.382752e-38
0.024547935 0.34207016 1.681 1.410411e-38
0.21134667 0.34202284 1.694 1.4471461e-38
0.27696475 0.3426038 1.681 1.4196304e-38
0.31752223 0.34207016 1.6810001 1.34609e-38
0.32865268 0.34191766 1.681 1.3276871e-38
0.53222549 0.34226403 1.68325 1.0139706e-38
0.5683381 0.34100285 1.681 9.7716466e-39
0.8477 0.037566666 1.715 2.2126951e-39
0.97655189 0.069507413 1.715 8.301194e-40
0.98228675 0.071540006 1.715 8.2975927e-40
0.97510004 0.087655559 1.715 8.2940194e-40
0.98707783 0.098544449 1.715 9.219549e-40
0.98968726 0.11209492 1.7133638 1.0141519e-39
1.0063776 0.11795771 1.706 1.566967e-39
0.99413043 0.13220532 1.7137729 8.2976067e-40
1.0075266 0.1302021 1.7109094 1.3825771e-39
0.97085333 0.15712665 1.715 1.2907388e-39
0.99349654 0.14811756 1.7149999 1.0145107e-39
1.006151 0.14978619 1.7095003 1.3825757e-39
0.97313994 0.17084667 1.715 1.2907374e-39
0.9915697 0.17163613 1.715 1.1981831e-39
1.0071888 0.16939482 1.7116575 1.4751315e-39
0.96932054 0.19185387 1.715 1.6595213e-39
0.99379927 0.19128273 1.7122729 1.5673271e-39
1.0054131 0.18582396 1.7094285 1.7513582e-39
0.95509166 0.20886251 1.715 3.226847e-39
0.97016996 0.20922485 1.7139412 3.1353689e-39
0.9901799 0.20549244 1.7118696 3.3190413e-39
1.0108953 0.2125092 1.7120001 3.7839725e-39
0.93025714 0.29238313 1.7133636 9.219563e-40
0.92446673 0.30379999 1.715 9.2231503e-40
-0.99068278 0.33458236 1.7137144 1.2627901e-38
-0.96765852 0.33069664 1.7105 1.2720459e-38
-0.94890189 0.32823461 1.709 1.3359709e-38
-0.87574667 0.32657713 1.7060001 1.3820313e-38
-0.8065834 0.33173856 1.7075 1.2809059e-38
-0.79578334 0.32906333 1.7105 1.3450474e-38
-0.76603335 0.33483335 1.715 1.3088156e-38
-0.75138611 0.33152056 1.7114 1.363666e-38
-0.73039907 0.32954437 1.7096001 1.3908564e-38
-0.7105 0.33156666 1.715 1.3908214e-38
-0.64675748 0.3337003 1.7120001 1.3541947e-38
-0.63099039 0.33625385 1.7130001 1.3269317e-38
-0.61142319 0.33041239 1.709 1.427627e-38
-0.59126675 0.33646673 1.715 1.2994169e-38
-0.5702619 0.33100364 1.7072858 1.4275194e-38
-0.55109525 0.33316159 1.7120001 1.5468331e-38
-0.52826858 0.33479208 1.7120001 1.6384172e-38
-0.50978369 0.33450669 1.7085716 1.5742037e-38
-0.48935649 0.33330312 1.7105001 1.5007354e-38
-0.47088701 0.33373299 1.7093751 1.5925359e-38
-0.44916669 0.33810002 1.715 1.5372896e-38
-0.43083006 0.33508497 1.7135 1.4366675e-38
-0.3900727 0.33366191 1.709 1.2350242e-38
-0.36490238 0.33557951 1.7105 1.3270033e-38
-0.35085094 0.33508497 1.7135 1.281122e-38
-0.27056342 0.33429351 1.7098572 1.373462e-38
-0.25165007 0.33315048 1.7114 1.4103036e-38
-0.10425476 0.33721286 1.7105 1.4562571e-38
-0.088610761 0.3375361 1.7105 1.4379616e-38
-0.074072771 0.33578518 1.7132 1.4196305e-38
-0.040619045 0.33470094 1.706 1.4288867e-38
-0.030063367 0.33551207 1.7096 1.4380699e-38
-0.010502684 0.33635291 1.7076365 1.4288493e-38
0.0061895237 0.33603069 1.7078001 1.3921151e-38
0.030949049 0.33829603 1.7105001 1.4472525e-38
0.049630236 0.33758169 1.7082499 1.4563647e-38
0.069144502 0.33505341 1.710091 1.4288855e-38
0.088023216 0.33457845 1.7116251 1.3550573e-38
0.13048452 0.33602738 1.7127501 1.3273632e-38
0.15078868 0.33539513 1.7116251 1.3917559e-38
0.1661543 0.33721286 1.7105 1.4194502e-38
0.19113106 0.33898517 1.7096001 1.3919002e-38
0.2115905 0.33908349 1.709 1.4011918e-38
0.22891811 0.33768535 1.7096001 1.4195588e-38
0.31278336 0.33810002 1.715 1.2077259e-38
0.32842413 0.33602729 1.7100002 1.2353484e-38
0.35024098 0.33435667 1.7105 1.2260568e-38
0.36840153 0.33539513 1.7116251 1.1801029e-38
0.38935524 0.33395478 1.7105 1.2534636e-38
0.40986237 0.33557951 1.7105 1.1799594e-38
0.42911583 0.33643848 1.7132 1.1431528e-38
0.47526476 0.33257303 1.7090001 1.0876911e-38
0.49104679 0.3366949 1.7109091 1.0600321e-38
0.50971687 0.33728886 1.7109091 1.0230104e-38
0.52736998 0.33336261 1.7098573 1.004571e-38
0.54975206 0.3358013 1.7116251 9.4914653e-39
0.56979483 0.33454752 1.709375 9.2191944e-39
0.59023553 0.33657917 1.7072858 9.5868994e-39
0.61144018 0.33638644 1.7100002 9.4957771e-39
0.62662768 0.3380003 1.7090001 9.8638352e-39
0.64680004 0.33483335 1.715 9.8627576e-39
0.67027831 0.33676928 1.7082499 8.9429593e-39
0.69270605 0.3386901 1.7114 8.6649347e-39
0.70374429 0.33721286 1.7105 7.837325e-39
0.7252 0.33483335 1.715 3.0428201e-39
0.75263286 0.33557951 1.7105 3.3186755e-39
0.85586667 0.33810002 1.715 4.0544273e-39
0.86860669 0.33810002 1.715 3.0413726e-39
0.88846135 0.33658269 1.7093751 2.1197792e-39
0.90432227 0.33592224 1.715 3.3176007e-39
-0.024500001 0.34136668 1.715 1.4194869e-38
0.21666333 0.34536237 1.7105 1.447182e-38
0.22050001 0.3479 1.715 1.4472539e-38
0.94946653 0.032628 1.7302001 3.6907189e-39
0.97020537 0.036271356 1.7250769 1.659164e-39
0.98457146 0.037741907 1.723 1.1992607e-39
0.9538371 0.046186663 1.7320001 1.4751329e-39
0.97222775 0.049004097 1.7265997 9.219563e-40
0.98433709 0.048525311 1.7229999 9.219563e-40
0.93857902 0.075878099 1.732 2.7662262e-39
0.95117539 0.069280006 1.7320001 1.7520757e-39
0.96869218 0.069170013 1.7263483 7.3792377e-40
0.98675936 0.067279056 1.7229999 8.2976207e-40
0.93857902 0.08742477 1.732 2.674032e-39
0.95161492 0.088691778 1.7303637 1.8442713e-39
0.97068757 0.089403421 1.7248943 8.301194e-40
0.9883129 0.088283233 1.7229997 7.3756504e-40
0.95481139 0.10806777 1.72975 1.3829344e-39
0.97054565 0.11009934 1.7254372 9.219549e-40
0.98457146 0.11092839 1.7229998 1.1059874e-39
0.93775427 0.12701333 1.732 1.6595213e-39
0.95151287 0.12746853 1.7311559 1.3832932e-39
0.97114813 0.13048604 1.7271858 9.2231643e-40
0.98835284 0.12992065 1.7229998 1.1059874e-39
0.93610477 0.15588 1.732 1.5673271e-39
0.95255858 0.1525218 1.730333 1.3832946e-39
0.96962488 0.14797945 1.7259997 1.1985432e-39
0.98886919 0.15229599 1.7229998 1.1063476e-39
0.93281591 0.17048055 1.730714 1.4747713e-39
0.95112598 0.1695382 1.7303469 1.382933e-39
0.96976763 0.17149287 1.7242855 1.2907388e-39
0.98972875 0.16667387 1.7229998 1.1063476e-39
0.93363047 0.19134478 1.7319999 1.751717e-39
0.95091593 0.19105269 1.727787 1.6595213e-39
0.97075248 0.18861988 1.7233459 1.5673257e-39
0.98723799 0.19014536 1.7229997 1.2907388e-39
0.91715771 0.21639606 1.7307144 2.9542132e-39
0.93143106 0.21190882 1.7319996 2.950979e-39
0.94842327 0.21083283 1.7287496 2.950979e-39
0.9708969 0.20183715 1.723 2.4889191e-39
0.98293048 0.20183715 1.723 2.4885575e-39
0.91350788 0.22562347 1.729231 3.3237202e-39
0.92703235 0.22488508 1.7320001 3.4151914e-39
0.93165076 0.27609026 1.7229998 2.121217e-39
0.94190669 0.27732095 1.723 1.4754888e-39
0.91647542 0.29262552 1.7320002 2.3978038e-39
0.9284603 0.28865743 1.7271347 1.6595199e-39
0.94190669 0.28224382 1.723 1.1989005e-39
0.49980572 0.31835809 1.732 9.5861707e-39
0.91599971 0.30632123 1.7311001 1.5676844e-39
0.92401546 0.30809504 1.7299231 1.106349e-39
-1.0044411 0.33217791 1.7284001 1.3269306e-38
-0.99042386 0.33266377 1.7275002 1.2993806e-38
-0.96819395 0.32951963 1.7248001 1.3175679e-38
-0.95995718 0.32819051 1.723 1.3541225e-38
-0.90393901 0.33485332 1.732 1.2718654e-38
-0.89055121 0.32861692 1.72525 1.3909633e-38
-0.87589717 0.33155429 1.732 1.3909995e-38
-0.82558668 0.33402857 1.732 1.2533906e-38
-0.81548041 0.33218133 1.7284001 1.3082765e-38
-0.78332645 0.33523878 1.7297499 1.3179268e-38
-0.77182853 0.33370966 1.728 1.3085277e-38
-0.75005692 0.33025786 1.72525 1.3999684e-38
-0.73238856 0.33155429 1.732 1.427483e-38
-0.71286917 0.33369336 1.7260001 1.3907855e-38
-0.69189787 0.33441833 1.72975 1.3448306e-38
-0.662507 0.32768095 1.729 1.5741673e-38
-0.64919341 0.33045274 1.728294 1.5374699e-38
-0.63320619 0.33212337 1.7275001 1.4917684e-38
-0.6109218 0.33562714 1.7275 1.409439e-38
-0.59156358 0.33245569 1.728143 1.5101348e-38
