# .PCD v0.7 - Point Cloud Data file format
VERSION 0.7
FIELDS x y z rgb
SIZE 4 4 4 4
TYPE F F F F
COUNT 1 1 1 1
WIDTH 1013
HEIGHT 1
VIEWPOINT 0 0 0 1 0 0 0
POINTS 1013
DATA ascii
-0.54766065 -0.24657594 3.1353495 7.280924e-39
-0.54942077 -0.25176701 3.1118901 1.2622846e-38
-0.54102892 -0.20337351 3.1973603 1.3828588e-38
-0.5438149 -0.21439023 3.1583154 1.4656918e-38
-0.54659963 -0.22068846 3.1323411 1.308743e-38
-0.53217566 -0.19430935 3.2147052 1.2069663e-38
-0.54040354 -0.18329392 3.1919444 1.3181415e-38
-0.54374856 -0.18751791 3.1595173 1.3735317e-38
-0.55195844 -0.18577379 3.1474063 1.1153124e-38
-0.53890026 -0.15661694 3.2347057 1.475091e-38
-0.53331739 -0.15080872 3.1942971 1.5489195e-38
-0.54179126 -0.15708593 3.1637127 1.5488116e-38
-0.53599769 -0.11753675 3.1923571 1.5949823e-38
-0.54158026 -0.12920803 3.1599722 1.6595188e-38
-0.53667039 -0.082961686 3.2190125 1.6409718e-38
-0.53651273 -0.090189748 3.18714 1.7331314e-38
-0.54421777 -0.099394932 3.1635077 1.6133137e-38
-0.53871769 -0.067256674 3.2361705 1.6778136e-38
-0.53621686 -0.055133916 3.211092 1.6870696e-38
-0.5393883 -0.065024428 3.1934483 1.6685943e-38
-0.54030836 -0.068671905 3.1648338 1.6225329e-38
-0.53536004 -0.031865183 3.2198102 1.6963255e-38
-0.54267383 -0.037127502 3.1939645 1.6871419e-38
-0.53698349 -0.039631855 3.1640944 1.6594469e-38
-0.52697718 0.0051027504 3.2400556 1.723984e-38
-0.53225905 0.0021848024 3.2132881 1.6963257e-38
-0.54396909 -0.0058478056 3.1854923 1.6408289e-38
-0.54329038 -0.0047822883 3.166378 1.6592317e-38
-0.52479917 0.019645208 3.2390678 1.465944e-38
-0.52915221 0.033369187 3.2034488 1.6779228e-38
-0.54296219 0.018332599 3.1930223 1.6867096e-38
-0.54606354 0.022721078 3.1696081 1.5857276e-38
-0.53597093 0.05958645 3.2040181 1.6501921e-38
-0.5470866 0.065973125 3.1741638 1.5395217e-38
-0.54994446 0.041534476 3.1625392 1.5857992e-38
-0.52786434 0.097810932 3.2045977 1.5765795e-38
-0.54707503 0.082409106 3.1890073 1.5120781e-38
-0.53770113 0.11450388 3.2045879 1.5120424e-38
-0.52605325 0.15525809 3.2056744 1.4936394e-38
-0.54765821 0.13188626 3.1755023 1.1526976e-38
-0.53135604 0.172464 3.20626 1.4475417e-38
-0.54847378 0.16898899 3.1762769 8.4823581e-39
-0.53241318 0.20412397 3.2070487 9.8595024e-39
-0.53880459 0.20983267 3.1872184 7.3763566e-39
-0.58062041 0.20881847 3.015281 8.2028831e-39
-0.5709601 0.21281755 2.9878988 8.2079096e-39
-0.57579917 0.20453374 2.9378846 7.7476475e-39
-0.60910869 0.21499339 2.9154856 8.4801931e-39
-0.5757345 0.22855446 3.0348911 1.3730266e-38
-0.57561719 0.22563793 3.0058024 1.0874742e-38
-0.57888794 0.22882046 2.9780629 1.1427555e-38
-0.59752935 0.22654082 2.9466898 9.9545987e-39
-0.58677387 0.22907785 2.9165416 1.0876551e-38
-0.59868878 0.22727807 2.8937576 1.0046437e-38
-0.60759425 0.2247566 2.860621 9.7702102e-39
-0.60765034 0.22502354 2.83322 1.0045717e-38
-0.61716586 0.22564772 2.7988541 9.2173924e-39
-0.62310433 0.22707362 2.77212 1.013935e-38
-0.63330799 0.23017679 2.7401292 1.0231186e-38
-0.63880843 0.23050782 2.7159529 1.0506696e-38
-0.64698225 0.22899625 2.6857848 1.1061304e-38
-0.65408462 0.23116851 2.6631739 1.0230111e-38
-0.65786976 0.22937433 2.6279128 1.0415218e-38
-0.66391736 0.22854562 2.5935845 1.0323381e-38
-0.67098671 0.23043305 2.5708153 1.0599601e-38
-0.67813969 0.23076548 2.5425634 1.1061661e-38
-0.68160027 0.23176193 2.510468 1.152192e-38
-0.68603373 0.23236923 2.4782593 1.0968751e-38
-0.69281781 0.23022409 2.4500632 1.0876917e-38
-0.69881541 0.23133647 2.4226232 1.1062027e-38
-0.70607048 0.23262426 2.3887606 1.1153142e-38
-0.71783394 0.23281436 2.3590591 1.0784718e-38
-0.71940917 0.23307173 2.334389 1.0968393e-38
-0.71925062 0.23152593 2.3057802 9.3099523e-39
-0.72188407 0.2316093 2.2662828 8.9411712e-39
-0.73653859 0.22808012 2.2443326 9.8624087e-39
-0.73089701 0.22910573 2.2262564 1.0138277e-38
-0.70654106 0.23663686 2.4456849 9.9556819e-39
-0.70171356 0.2377885 2.4253542 1.0507054e-38
-0.7017898 0.23709476 2.3956594 1.0508842e-38
-0.72372693 0.23587093 2.3735981 1.16152e-38
-0.71984458 0.23622291 2.3284078 1.0876196e-38
-0.72546303 0.23576343 2.3077054 1.0416297e-38
-0.72905433 0.23671785 2.2762787 1.1059511e-38
-0.73834091 0.23617889 2.2448056 1.023119e-38
-0.75021595 0.23543933 2.2172036 1.0507774e-38
-0.75756961 0.23663719 2.1855876 1.0876556e-38
-0.75705224 0.2366485 2.155951 1.0416297e-38
-0.7691859 0.23918456 2.126029 1.0968751e-38
-0.77278847 0.23806082 2.0994864 1.1337173e-38
-0.77830446 0.23831522 2.0666208 1.1798867e-38
-0.78750068 0.23712848 2.0400739 1.1430804e-38
-0.78846788 0.23783991 2.0125973 1.1799227e-38
-0.79439074 0.23726802 1.9817958 1.198326e-38
-0.80131918 0.23798825 1.95146 1.2995614e-38
-0.80560315 0.23614077 1.9152149 1.2627552e-38
-0.81742752 0.23816286 1.8963642 1.3272922e-38
-0.8221004 0.23677337 1.8612273 1.3087091e-38
-0.82837456 0.2368274 1.8301121 1.2625754e-38
-0.83469224 0.23640291 1.8047489 1.3358276e-38
-0.83594376 0.23879001 1.7755599 1.2809422e-38
-0.85181344 0.23913833 1.7457033 1.3178562e-38
-0.8514204 0.23759148 1.7183058 1.3453352e-38
-0.85773605 0.23854691 1.6879562 1.44639e-38
-0.8679837 0.24043611 1.6578863 1.3821409e-38
-0.87311679 0.24095769 1.6282822 1.3822849e-38
-0.87516314 0.24093817 1.6002077 1.3365833e-38
-0.8860451 0.23995697 1.5683521 1.3182162e-38
-0.89203686 0.24197552 1.5404565 1.3366194e-38
-0.89532363 0.24444441 1.5157795 1.2903068e-38
-0.4462738 -0.74568945 3.4963703 5.8137477e-39
-0.43677545 -0.73762614 3.4643724 5.8977023e-39
-0.44149977 -0.72068352 3.4851673 1.1983642e-38
-0.45234448 -0.72237879 3.4546626 1.0972369e-38
-0.44972706 -0.71666175 3.4330921 1.1526623e-38
-0.4393971 -0.68999386 3.4880652 1.8071791e-38
-0.44649711 -0.68904483 3.4605751 1.7516812e-38
-0.46057478 -0.68789387 3.428901 1.5860898e-38
-0.44299603 -0.66237932 3.4838345 1.3919015e-38
-0.44648501 -0.65991408 3.4598424 1.3733899e-38
-0.4545691 -0.66128558 3.4317656 1.4840607e-38
-0.4555493 -0.67024064 3.411891 1.7518257e-38
-0.4408094 -0.62206835 3.5029979 9.1255751e-39
-0.45168841 -0.63396561 3.4766612 1.2997405e-38
-0.44363543 -0.63213164 3.4483507 1.2443881e-38
-0.45712829 -0.62504166 3.4315052 1.1523376e-38
-0.43141958 -0.60663581 3.4760904 8.7568038e-39
-0.44869325 -0.59950387 3.4575975 8.7593177e-39
-0.45491767 -0.60002029 3.4311056 8.3898219e-39
-0.45925462 -0.57980776 3.4741867 9.0358948e-39
-0.45544049 -0.57458222 3.4492221 9.3132132e-39
-0.45949912 -0.5682466 3.4193556 9.1284674e-39
-0.46588379 -0.56808382 3.3975058 8.4838126e-39
-0.4754667 -0.56519598 3.3656092 1.1436594e-38
-0.44635975 -0.5475086 3.4482179 7.8402439e-39
-0.45510641 -0.54499048 3.4193807 8.299064e-39
-0.4662503 -0.54829389 3.3951113 8.481649e-39
-0.4868767 -0.541682 3.2185495 4.5183117e-39
-0.50615424 -0.5349353 3.1886566 5.6239446e-39
-0.5263533 -0.53214574 3.1243153 3.5045115e-39
-0.48641074 -0.52612555 3.2542462 1.6137104e-38
-0.49558988 -0.52188712 3.2219234 1.7057279e-38
-0.50250947 -0.51748961 3.1895068 8.5745593e-39
-0.51497585 -0.51491785 3.1601663 7.5589626e-39
-0.51825243 -0.51857972 3.1391046 9.4954352e-39
-0.52736002 -0.51315969 3.1182222 1.3464186e-38
-0.49967551 -0.48661333 3.1795704 1.475561e-38
-0.51545256 -0.48453462 3.1649461 5.7172151e-39
-0.52212042 -0.48794103 3.1295006 7.9270235e-39
-0.52984059 -0.47190344 3.117763 5.8094149e-39
-0.5189395 -0.45162818 3.1570556 7.1869193e-39
-0.51904708 -0.4565061 3.128871 6.8167061e-39
-0.52744591 -0.45566893 3.1039252 6.5393905e-39
-0.52576119 -0.41418692 3.1659186 1.1703048e-38
-0.51806867 -0.42703062 3.1262255 1.1517935e-38
-0.52541471 -0.42617819 3.1036003 1.1149877e-38
-0.52566618 -0.39274859 3.1558034 1.1425382e-38
-0.52543598 -0.39906439 3.128861 1.0689622e-38
-0.52559394 -0.40024516 3.1013029 1.2991267e-38
-0.51555532 -0.35319358 3.1587939 1.2161143e-38
-0.52097058 -0.36860251 3.1252778 1.3083461e-38
-0.52269518 -0.36734891 3.1036842 1.1235967e-38
-0.51087266 -0.32693976 3.1527646 1.1975322e-38
-0.52369899 -0.3394843 3.1256015 1.3176736e-38
-0.52113467 -0.33568823 3.0988109 1.1972806e-38
-0.54158765 -0.32912311 3.0819597 1.658106e-39
-0.51583123 -0.29693285 3.1534219 1.207075e-38
-0.5261423 -0.30788493 3.1263626 1.2622845e-38
-0.5259642 -0.30701715 3.1072166 1.2434861e-38
-0.53912902 -0.32107836 3.0831361 5.3530905e-39
-0.51245779 -0.26520064 3.1515343 1.2530653e-38
-0.51750928 -0.27968267 3.1248016 1.2899786e-38
-0.52648681 -0.27446356 3.1027846 1.2624284e-38
-0.50760823 -0.24284314 3.194433 9.6754782e-39
-0.51549983 -0.24023658 3.1638882 9.5836399e-39
-0.52263963 -0.24627191 3.1273673 1.2164025e-38
-0.52097088 -0.24436338 3.1033149 1.1977837e-38
-0.50421971 -0.20213543 3.2016087 1.576399e-38
-0.51745558 -0.21356741 3.1962936 1.1422155e-38
-0.51284462 -0.21153805 3.1584332 1.5301554e-38
-0.51961708 -0.21835084 3.1310544 1.391611e-38
-0.5166828 -0.21609591 3.1012454 1.1890341e-38
-0.50567389 -0.17291982 3.2137656 1.3365443e-38
-0.50307441 -0.18504113 3.1893847 1.336798e-38
-0.51492614 -0.18394519 3.159626 1.3735316e-38
-0.51803643 -0.18751697 3.1306722 1.2538566e-38
-0.50621676 -0.14806996 3.2136121 1.539556e-38
-0.50824404 -0.15720853 3.1801174 1.5487397e-38
-0.5171771 -0.15146577 3.1590145 1.6594825e-38
-0.51695561 -0.16020913 3.1315494 1.4750188e-38
-0.50194269 -0.11645789 3.2303977 1.530912e-38
-0.50570011 -0.1198327 3.2141683 1.5766864e-38
-0.50899011 -0.12236921 3.1881087 1.6317885e-38
-0.51297241 -0.12120587 3.1594915 1.7332755e-38
-0.51693076 -0.12581812 3.1341474 1.6318601e-38
-0.4978146 -0.081688553 3.2334752 1.3734252e-38
-0.50419146 -0.091483012 3.2153742 1.6041294e-38
-0.51046526 -0.084074162 3.1801901 1.7055086e-38
-0.52050322 -0.097012356 3.1597083 1.6318244e-38
-0.50011307 -0.055003546 3.2043231 1.6871414e-38
-0.50928044 -0.056389097 3.1806769 1.7332037e-38
-0.51611519 -0.071186252 3.1591012 1.6222806e-38
-0.50899822 -0.074487895 3.1307578 1.659555e-38
-0.49164951 -0.031313866 3.2380526 1.4286702e-38
-0.49971002 -0.028101584 3.2055123 1.7239841e-38
-0.51187027 -0.028503515 3.1845639 1.7146208e-38
-0.51023328 -0.035014071 3.1572876 1.5854742e-38
-0.50809646 -0.036422729 3.1316845 1.6872139e-38
-0.49166697 -0.0043567223 3.2383771 1.1522283e-38
-0.50718951 -0.0053396779 3.2016249 1.7424591e-38
-0.50653929 -0.00010490047 3.1825542 1.6961815e-38
-0.51641846 -0.0054789428 3.1595728 1.6224255e-38
-0.50594342 -0.00026320637 3.1328266 1.770046e-38
-0.49461082 0.027264208 3.2368817 1.0048228e-38
-0.50913537 0.026248232 3.2026999 1.4103018e-38
-0.50484431 0.01065151 3.1710105 1.7147651e-38
-0.52064097 0.012932227 3.1555202 1.5485599e-38
-0.49956754 0.060417689 3.2054904 1.0588434e-38
-0.51287061 0.050075144 3.1705947 1.6409362e-38
-0.50024986 0.086539432 3.2058845 1.1412798e-38
-0.5101406 0.07581313 3.1715074 1.5671431e-38
-0.50525355 0.1175325 3.204648 1.2336529e-38
-0.51983178 0.10313804 3.1698058 1.5949103e-38
-0.49865672 0.15174802 3.2082067 1.2529206e-38
-0.51319844 0.14954595 3.1720736 1.5303739e-38
-0.49871337 0.18259741 3.2089763 1.271468e-38
-0.50540131 0.17684311 3.1742373 1.3923685e-38
-0.51006019 0.20665601 3.2049859 1.1518659e-38
-0.51659387 0.20479271 3.1729765 1.0597076e-38
-0.55210096 0.21428326 2.9871242 8.6663696e-39
-0.56225061 0.2142351 2.9375007 8.5741768e-39
-0.57898384 0.20789601 2.9140604 8.207555e-39
-0.55582756 0.23153259 3.0010369 1.2809386e-38
-0.55897123 0.23043524 2.9686759 1.1976022e-38
-0.55930454 0.22747947 2.9406469 1.0783625e-38
-0.56387705 0.22102953 2.9154785 8.9408083e-39
-0.57047135 0.22574419 2.8867412 9.3095894e-39
-0.57452118 0.2257605 2.8550191 9.8616842e-39
-0.58145845 0.22547187 2.8279901 9.5858162e-39
-0.5858748 0.22581707 2.7951396 9.9545987e-39
-0.60362536 0.22982244 2.7643964 9.9545987e-39
-0.60535496 0.22936144 2.7415526 1.0138993e-38
-0.60510236 0.23072934 2.7103188 1.0139349e-38
-0.61413383 0.22919141 2.6732743 1.0507771e-38
-0.62631196 0.22783162 2.6483924 9.8616856e-39
-0.62400919 0.22836599 2.6238158 1.0230828e-38
-0.63038749 0.22894204 2.5909708 1.0324457e-38
-0.64176148 0.23046203 2.5592077 1.0785433e-38
-0.64627475 0.23205805 2.5355976 1.1245695e-38
-0.65385848 0.23077977 2.5006082 1.1245335e-38
-0.65710449 0.23076351 2.4726748 1.1244977e-38
-0.66780418 0.22916719 2.4381166 1.1429371e-38
-0.67105114 0.22997054 2.4174223 1.0877275e-38
-0.67726839 0.23152444 2.3903196 1.07858e-38
-0.68536246 0.23346454 2.3598495 1.0969828e-38
-0.69144136 0.23208192 2.3230729 1.1060949e-38
-0.69890332 0.23085439 2.2940438 9.5858218e-39
-0.69643301 0.23163161 2.2679508 8.8486155e-39
-0.70665371 0.23259261 2.239908 1.0323743e-38
-0.71375263 0.22519411 2.2120886 1.0046437e-38
-0.70931804 0.22980161 2.1802845 1.0046441e-38
-0.72221231 0.22581612 2.1375999 1.0692164e-38
-0.7326687 0.22891504 2.0814314 1.0692883e-38
-0.67532575 0.23733526 2.4172094 1.0691805e-38
-0.68486792 0.23776542 2.3933558 1.1061304e-38
-0.68341416 0.23840845 2.3464773 1.1060945e-38
-0.69006717 0.23510119 2.3230689 1.1153142e-38
-0.69273502 0.23640978 2.2974503 1.0968392e-38
-0.69869798 0.23582429 2.2677624 1.1612686e-38
-0.71338934 0.23602395 2.2364657 1.1982901e-38
-0.71524698 0.23533583 2.2105436 1.0692525e-38
-0.72529531 0.23443107 2.1786811 1.0508133e-38
-0.72898996 0.23561665 2.1498315 1.0415217e-38
-0.7307359 0.23483376 2.1222391 1.1061305e-38
-0.73855126 0.23683339 2.0903299 1.1522279e-38
-0.74458522 0.23602554 2.0599122 1.1890344e-38
-0.75269854 0.23721114 2.0312297 1.2259844e-38
-0.76331764 0.23591961 1.9992096 1.2351682e-38
-0.76150852 0.23817796 1.9672656 1.262791e-38
-0.7738716 0.23675297 1.9417396 1.2258772e-38
-0.77919203 0.23426703 1.9147352 1.1521206e-38
-0.78433585 0.23852022 1.8865647 1.3455876e-38
-0.79554737 0.23687619 1.8528764 1.4102683e-38
-0.80014586 0.23616277 1.8267764 1.2899457e-38
-0.80855638 0.23678458 1.7977667 1.308277e-38
-0.81256407 0.23643681 1.7706995 1.280726e-38
-0.8177948 0.23985887 1.7359447 1.3456592e-38
-0.82493401 0.23589897 1.7129059 1.3083487e-38
-0.83292276 0.2370602 1.683872 1.4001842e-38
-0.83821446 0.24048138 1.6488056 1.3727414e-38
-0.84233999 0.24183017 1.624972 1.3456225e-38
-0.85066599 0.23911929 1.5952792 1.3734252e-38
-0.85096663 0.24180895 1.5632459 1.3919369e-38
-0.86393696 0.2413971 1.5385618 1.3458034e-38
-0.87125129 0.23872955 1.5181462 1.2352403e-38
-0.87574583 0.24322115 1.4752673 1.3087818e-38
-0.84725881 0.25234669 1.6710795 1.3918998e-38
-0.85863167 0.25034338 1.5330737 1.4009053e-38
-0.41545868 -0.74772751 3.4702375 7.4714516e-39
-0.4135932 -0.73869598 3.4547372 7.1919864e-39
-0.42389092 -0.74109906 3.427264 7.0108349e-39
-0.4108586 -0.72139633 3.5021372 2.2219508e-38
-0.41597834 -0.72113252 3.4694412 9.6791048e-39
-0.42030489 -0.72261614 3.4536259 8.4841812e-39
-0.42741352 -0.72042406 3.4228508 8.2075803e-39
-0.44325992 -0.72836268 3.3977745 8.8558588e-39
-0.4044241 -0.6861937 3.4775681 1.5492467e-38
-0.41816747 -0.69237286 3.4506135 1.7794121e-38
-0.43044728 -0.68882072 3.4268479 1.4751308e-38
-0.42025799 -0.68381482 3.3953102 1.3919382e-38
-0.39602861 -0.66579086 3.5237358 1.4007957e-38
-0.40586919 -0.65724576 3.4993181 1.3271475e-38
-0.40643144 -0.66839081 3.4715142 1.3366556e-38
-0.42079806 -0.66066086 3.4501507 1.3455513e-38
-0.43109846 -0.65788472 3.4232175 1.4194154e-38
-0.4174661 -0.65798295 3.4028358 1.2537864e-38
-0.42060146 -0.61392474 3.5008066 8.9411922e-39
-0.4229359 -0.62943184 3.4698677 1.2168013e-38
-0.42258355 -0.63050443 3.4482074 1.2352761e-38
-0.42746022 -0.62486935 3.4216657 1.3089243e-38
-0.40813184 -0.6103887 3.4994156 8.5770746e-39
-0.41524547 -0.60573304 3.4695764 9.0348158e-39
-0.41937721 -0.60264325 3.4476409 1.0049694e-38
-0.42778364 -0.59812772 3.4197829 8.3908981e-39
-0.42881772 -0.59386408 3.3828387 8.2951054e-39
-0.42132473 -0.57329386 3.4424274 1.0697227e-38
-0.42530614 -0.57355738 3.4120266 8.9451551e-39
-0.4331066 -0.56688648 3.3982856 9.0366305e-39
-0.44449231 -0.56578732 3.3734367 8.300492e-39
-0.42647913 -0.53900802 3.4414701 1.2426629e-38
-0.42523628 -0.54570305 3.4182003 8.2994242e-39
-0.43596798 -0.54741913 3.3838618 8.763289e-39
-0.4601799 -0.5281294 3.2742441 1.1895033e-38
-0.46159971 -0.5346812 3.2444668 1.1614857e-38
-0.45772693 -0.53192216 3.2127824 1.2353493e-38
-0.47672334 -0.53387839 3.19841 1.2725514e-38
-0.48961544 -0.53307688 3.1545353 5.0722198e-39
-0.49181759 -0.53405857 3.1254306 1.1706688e-38
-0.48076254 -0.53246939 3.1079068 9.1280974e-39
-0.45824981 -0.51653993 3.2640278 9.5951544e-39
-0.46752188 -0.51979572 3.2428689 1.0972002e-38
-0.46960703 -0.51799583 3.2148304 1.4108085e-38
-0.47655591 -0.51858586 3.1868212 1.2908115e-38
-0.48347762 -0.51406801 3.1572726 1.3183983e-38
-0.4919723 -0.52141047 3.1253467 1.0785091e-38
-0.49922332 -0.5287351 3.0969176 1.4931e-38
-0.46711347 -0.49353099 3.1780386 1.3648529e-38
-0.48297298 -0.48798621 3.1542566 1.3094668e-38
-0.49059519 -0.48204854 3.1276228 1.2354217e-38
-0.50538939 -0.48427019 3.0948098 4.9778171e-39
-0.48790082 -0.44210559 3.1551397 1.0686004e-38
-0.49084225 -0.45107999 3.1218293 1.1608344e-38
-0.49349982 -0.45968097 3.0995438 7.6471912e-39
-0.47092819 -0.42316985 3.1665556 1.2347333e-38
-0.49666345 -0.42326856 3.1553917 1.225622e-38
-0.49553376 -0.42460534 3.1242201 1.1886359e-38
-0.49394727 -0.4261961 3.1035192 1.1793804e-38
-0.49546883 -0.3871173 3.1500282 1.2060696e-38
-0.49302542 -0.39552408 3.124485 1.2437019e-38
-0.49368531 -0.39692959 3.0985441 1.252957e-38
-0.49518955 -0.35842231 3.149025 1.1783033e-38
-0.48815432 -0.36614251 3.122231 1.2063568e-38
-0.49434933 -0.36872035 3.0995574 1.2342669e-38
-0.48217246 -0.32831389 3.1521859 1.1691194e-38
-0.49039283 -0.33918366 3.1217089 1.2433065e-38
-0.49939772 -0.33511293 3.0929959 1.2343384e-38
-0.48552549 -0.29858446 3.1587842 1.2251901e-38
-0.49332732 -0.30391613 3.1252429 1.2435219e-38
-0.49305955 -0.31002116 3.097383 1.2616025e-38
-0.48186326 -0.27301511 3.1542218 1.2716837e-38
-0.49124891 -0.27872172 3.1209884 1.2438451e-38
-0.49589467 -0.27729484 3.0915091 1.345296e-38
-0.47109324 -0.23640089 3.1676822 8.9382845e-39
-0.48386943 -0.23180379 3.1509001 7.5625542e-39
-0.4900201 -0.24753639 3.121892 1.2071114e-38
-0.49218795 -0.24759775 3.0910368 1.2069677e-38
-0.50581831 -0.26133364 3.0780528 1.3175301e-38
-0.47288197 -0.20058353 3.2041245 1.6134572e-38
-0.47894353 -0.21311323 3.1682744 1.5026404e-38
-0.48813781 -0.21408446 3.1489475 1.4562556e-38
-0.48820829 -0.21872362 3.1208301 1.3826807e-38
-0.49438301 -0.22145523 3.0985794 1.216691e-38
-0.47607943 -0.17810203 3.2010534 1.290408e-38
-0.47826463 -0.18400326 3.1676357 1.2720444e-38
-0.4807193 -0.18565249 3.1506402 1.4381406e-38
-0.49201798 -0.18452418 3.1209676 1.4103737e-38
-0.47296095 -0.14689389 3.2038958 1.5396639e-38
-0.48551178 -0.15304081 3.1719329 1.53952e-38
-0.48583847 -0.15591432 3.1541564 1.7515701e-38
-0.49402982 -0.1579797 3.1320767 1.5027135e-38
-0.4724904 -0.11778976 3.2034729 1.6042736e-38
-0.480914 -0.11676138 3.1802154 1.6687385e-38
-0.4836486 -0.12639594 3.1482639 1.7332392e-38
-0.49135154 -0.13497432 3.1264932 1.6502991e-38
-0.47117254 -0.087622076 3.2045794 1.5673593e-38
-0.48387805 -0.087261498 3.1781561 1.6871056e-38
-0.48513719 -0.095681407 3.148361 1.659339e-38
-0.49304619 -0.10549928 3.1256638 1.6593389e-38
-0.46681312 -0.057238437 3.200439 1.4468194e-38
-0.48333868 -0.060910661 3.1769054 1.6871053e-38
-0.48662686 -0.066489987 3.1458423 1.6037691e-38
-0.46636426 -0.027572565 3.2010255 1.4932798e-38
-0.48343045 -0.026388321 3.1740255 1.6685949e-38
-0.48465157 -0.039460219 3.1461759 1.6224252e-38
-0.47428122 -0.0035724293 3.2001433 1.6501921e-38
-0.48020703 6.582226e-06 3.1720827 1.6132049e-38
-0.48723733 -0.0048425267 3.1479244 1.5944425e-38
-0.48017719 -0.0072067049 3.1211705 1.3362601e-38
-0.47840473 0.023709143 3.2002988 1.4838418e-38
-0.48242405 0.02699396 3.1741481 1.1703416e-38
-0.4825173 0.012693673 3.1377945 1.3916822e-38
-0.4906418 0.012077495 3.1188874 1.4097243e-38
-0.47958145 0.058483813 3.1703734 1.0403688e-38
-0.48086229 0.041923083 3.1387002 1.1973871e-38
-0.47978052 0.088567093 3.1710656 1.1692612e-38
-0.4850311 0.11528868 3.172704 1.2250814e-38
-0.48067662 0.14703898 3.1758037 1.2622836e-38
-0.47669053 0.17796645 3.1746168 1.2255138e-38
-0.52645725 0.21357486 2.8879097 9.217391e-39
-0.54234546 0.22390586 2.9140542 1.3916455e-38
-0.53980827 0.22386776 2.8821297 1.0966942e-38
-0.54688913 0.22280037 2.847151 9.8627604e-39
-0.55978376 0.22216122 2.8235214 1.0230825e-38
-0.55878913 0.22552258 2.7913203 9.8631219e-39
-0.56936032 0.22680123 2.7629786 9.8627632e-39
-0.5785327 0.22842138 2.732053 9.5861763e-39
-0.58233804 0.23041797 2.7034829 9.9542414e-39
-0.58675098 0.22865543 2.6741934 1.0508128e-38
-0.59195995 0.2297305 2.6451192 1.0967667e-38
-0.59723252 0.22977844 2.6130667 1.0414859e-38
-0.60249442 0.22984163 2.5851977 1.0878344e-38
-0.61300689 0.22882229 2.5555329 1.0509207e-38
-0.61963987 0.23206599 2.5265326 1.0969107e-38
-0.62360507 0.23179394 2.4916785 1.1245333e-38
-0.62805593 0.23137292 2.4682841 1.1521203e-38
-0.63379985 0.22986332 2.4387498 1.1615195e-38
-0.6442275 0.23108423 2.4068258 1.1244979e-38
-0.65186006 0.23149024 2.3789206 1.1061309e-38
-0.65821767 0.23208429 2.3440254 1.0876914e-38
-0.66270244 0.2321128 2.3191974 1.0877277e-38
-0.67581916 0.2306581 2.2878935 1.0692525e-38
-0.67509204 0.23237091 2.25792 1.0783282e-38
-0.67595661 0.2281183 2.2232106 9.2177581e-39
-0.70266289 0.23100412 2.1987677 8.7567744e-39
-0.68830657 0.22711511 2.1633213 8.6653018e-39
-0.7163344 0.22769046 2.1269734 1.0785077e-38
-0.69940495 0.22911611 2.0853949 1.1244982e-38
-0.71344644 0.22781794 2.0412164 1.1429732e-38
-0.73754829 0.2267542 1.9968436 9.9567567e-39
-0.73238492 0.2250441 1.9750621 9.035878e-39
-0.74010456 0.22372442 1.9440184 1.0875832e-38
-0.76076216 0.22441779 1.824417 1.3276175e-38
-0.63839191 0.23637947 2.3752289 1.0876195e-38
-0.66531384 0.23829095 2.3220208 1.0692165e-38
-0.67087442 0.2362172 2.2923801 1.1152785e-38
-0.66801292 0.2345901 2.2609808 9.9538826e-39
-0.68260658 0.23532777 2.2345333 1.0139351e-38
-0.68559331 0.23579407 2.2023811 1.0047872e-38
-0.69375998 0.23452467 2.1683893 1.050813e-38
-0.70167226 0.23525229 2.1417744 1.0969107e-38
-0.70810264 0.23521748 2.113451 1.1153857e-38
-0.71487981 0.23422928 2.0841165 1.179851e-38
-0.72340077 0.23545732 2.0536697 1.2351681e-38
-0.72049463 0.23729832 2.02847 1.216765e-38
-0.73286092 0.23634483 1.9958147 1.2167651e-38
-0.73892504 0.23594193 1.967423 1.2444239e-38
-0.744205 0.23651209 1.939885 1.2627552e-38
-0.75286525 0.23739725 1.9068629 1.2996334e-38
-0.7549125 0.23647287 1.8797669 1.2719027e-38
-0.76689839 0.2350274 1.8495833 1.327076e-38
-0.77081645 0.23571983 1.8203772 1.4189838e-38
-0.77554733 0.23601788 1.7933589 1.3084567e-38
-0.78015739 0.23582736 1.7639829 1.2990929e-38
-0.78894496 0.2362926 1.7382497 1.3172803e-38
-0.79647726 0.23788451 1.7024562 1.3360073e-38
-0.80148059 0.23677662 1.6732663 1.4549978e-38
-0.81013072 0.23959455 1.6445955 1.253535e-38
-0.81159139 0.23887141 1.6192055 1.3546981e-38
-0.81954235 0.24011886 1.5841722 1.3550942e-38
-0.82272553 0.24078408 1.5587151 1.2906294e-38
-0.83619988 0.24213994 1.5292476 1.3274e-38
-0.83677202 0.24133989 1.4997245 1.3549505e-38
-0.84541303 0.23885076 1.4694804 1.2444602e-38
-0.84962118 0.24448356 1.4341373 1.299634e-38
-0.836092 0.24875835 1.4730911 1.3826815e-38
-0.26440445 -1.5467498 3.9888811 4.4275566e-39
-0.27102286 -1.5535371 3.961652 3.0467802e-39
-0.26733604 -1.521782 3.9814875 6.0795222e-39
-0.26461217 -1.4929146 3.9831815 1.1618812e-38
-0.26569271 -1.469043 3.9910538 4.3371757e-39
-0.26332629 -1.4335365 3.987601 4.9807388e-39
-0.26174223 -1.3961897 3.9924767 4.614829e-39
-0.26737243 -1.3669708 3.9571223 4.9821738e-39
-0.26674864 -1.3466467 3.9578047 4.9828968e-39
-0.27009869 -1.3167648 3.9777164 4.8907054e-39
-0.2666117 -1.2899073 3.9598069 4.981822e-39
-0.26487198 -0.97198081 3.9709668 4.4286398e-39
-0.26437885 -0.95593554 3.9715054 4.4282783e-39
-0.38384947 -0.74218577 3.4734139 8.7510052e-39
-0.38820103 -0.73927158 3.4347939 6.3654725e-39
-0.38394013 -0.73912901 3.4227772 5.1662077e-39
-0.40666214 -0.73977619 3.3926699 5.4402722e-39
-0.36323768 -0.71134633 3.5217404 1.8712466e-38
-0.37111282 -0.71381217 3.5000002 1.2538244e-38
-0.37782449 -0.72572535 3.4739621 4.153139e-39
-0.3901417 -0.72011262 3.4423757 8.6671193e-39
-0.39798939 -0.72277302 3.4178681 8.2086579e-39
-0.40541095 -0.72347027 3.3935854 4.3382435e-39
-0.36771634 -0.69212478 3.5226867 1.5210485e-38
-0.38279057 -0.68861943 3.4985533 1.5305556e-38
-0.38011932 -0.69287133 3.471029 1.7701561e-38
-0.39127299 -0.68892115 3.4401112 1.4936775e-38
-0.39506856 -0.69047409 3.417464 1.5765101e-38
-0.37095678 -0.66890794 3.5236309 1.3640257e-38
-0.37758771 -0.65920013 3.5005648 1.2442793e-38
-0.38181725 -0.658315 3.4725065 1.2994887e-38
-0.38933325 -0.66106117 3.4427934 1.3083484e-38
-0.39788187 -0.66328233 3.4181621 1.4194517e-38
-0.40878341 -0.66497231 3.3988106 1.3546628e-38
-0.3680684 -0.63072902 3.5218461 8.8497099e-39
-0.37946349 -0.63034117 3.5073843 9.035899e-39
-0.38716909 -0.62983477 3.4672377 1.0511378e-38
-0.39045182 -0.62968254 3.441906 1.1154585e-38
-0.40420789 -0.63300842 3.4127979 1.2443868e-38
-0.37822521 -0.60979283 3.5043685 7.5604158e-39
-0.38038146 -0.60953909 3.4664719 7.2841974e-39
-0.38799351 -0.60291827 3.4415233 1.0143684e-38
-0.39810818 -0.60123336 3.4151528 8.3898177e-39
-0.41039276 -0.58966959 3.3843713 7.2849219e-39
-0.39096484 -0.57275116 3.4409223 8.4852518e-39
-0.39557534 -0.57589149 3.4139981 9.9596546e-39
-0.39985341 -0.57178831 3.3870776 8.7607554e-39
-0.41364992 -0.56847942 3.3580887 8.1146812e-39
-0.44650871 -0.55912685 3.2355168 9.6751489e-39
-0.4021132 -0.53949755 3.4389324 1.3071623e-38
-0.3978413 -0.54609865 3.4081845 8.301229e-39
-0.40000966 -0.55121148 3.3928254 9.3135775e-39
-0.39893216 -0.54957539 3.3573647 7.7509237e-39
-0.43121013 -0.5446319 3.2401993 8.8493539e-39
-0.44904977 -0.54595268 3.2004135 1.1703799e-38
-0.45357355 -0.53109115 3.1661835 1.4652981e-38
-0.45692635 -0.5380342 3.1478639 9.957505e-39
-0.46319905 -0.53951019 3.121207 1.3738196e-38
-0.44090652 -0.52183992 3.2260811 9.8685463e-39
-0.44578069 -0.51955765 3.2104199 1.0786536e-38
-0.44536778 -0.51334453 3.1764412 1.0882686e-38
-0.45811501 -0.51668841 3.1605167 9.1288261e-39
-0.44787145 -0.49582887 3.1968451 7.4566314e-39
-0.44851628 -0.49503508 3.1749134 9.4053864e-39
-0.45347738 -0.48549539 3.1427722 8.8478924e-39
-0.46024102 -0.48489189 3.1211538 1.1340781e-38
-0.4557603 -0.4434295 3.1453218 1.0872201e-38
-0.46391186 -0.45331356 3.1169789 9.9495456e-39
-0.46727794 -0.4596571 3.0939422 8.2929137e-39
-0.46062663 -0.44327495 3.0686994 8.8464182e-39
-0.45108932 -0.4275223 3.1668255 1.2348044e-38
-0.46687591 -0.41246104 3.1398735 1.2624284e-38
-0.46487615 -0.42057997 3.1178033 1.2161148e-38
-0.46976852 -0.42825615 3.0913644 1.2346978e-38
-0.46047086 -0.43304148 3.0689263 1.2717163e-38
-0.45216551 -0.38911912 3.1650817 1.1977115e-38
-0.45549232 -0.3869549 3.1377416 1.2344827e-38
-0.46343389 -0.39195046 3.1181843 1.2526702e-38
-0.46827382 -0.39927587 3.0947709 1.2621406e-38
-0.4575322 -0.35724127 3.1370656 1.1692995e-38
-0.46342272 -0.3600477 3.1124299 1.233872e-38
-0.46850523 -0.36893481 3.0888445 1.2339435e-38
-0.45526007 -0.33549342 3.1637635 1.179381e-38
-0.45951986 -0.32529837 3.142982 1.1692996e-38
-0.46410888 -0.32737914 3.1146514 1.2430552e-38
-0.46804857 -0.33964181 3.0919344 1.2525618e-38
-0.47171745 -0.33141282 3.0553074 1.2617462e-38
-0.46442887 -0.30594802 3.1464503 1.1600796e-38
-0.46156213 -0.30076504 3.114491 1.2616378e-38
-0.45753521 -0.30564278 3.0924678 1.2708215e-38
-0.47842327 -0.31349587 3.0646853 1.2243652e-38
-0.45616478 -0.26663667 3.164037 1.2348773e-38
-0.46789795 -0.26458454 3.1362622 1.2715398e-38
-0.46043685 -0.27459505 3.1136723 1.2897991e-38
-0.46658033 -0.27676219 3.0834837 1.3358246e-38
-0.47544351 -0.27623627 3.0631998 1.2808312e-38
-0.44781482 -0.23394017 3.1708436 1.0507404e-38
-0.46010935 -0.24899405 3.1340103 1.2899783e-38
-0.45907903 -0.24568985 3.1160681 1.2071114e-38
-0.46505478 -0.25078118 3.0931532 1.2716117e-38
-0.44215089 -0.20924093 3.1748316 1.7700804e-38
-0.46212572 -0.21373241 3.1426024 1.6409363e-38
-0.46149802 -0.21613501 3.1146078 1.5485231e-38
-0.46601918 -0.22140753 3.0895493 1.3643848e-38
-0.45052093 -0.17992876 3.169647 1.2906281e-38
-0.45755926 -0.18679984 3.1413386 1.5209001e-38
-0.46195915 -0.186756 3.1194298 1.4103378e-38
-0.45363519 -0.16314997 3.2132733 1.4566884e-38
-0.44650596 -0.14879911 3.1708901 1.6318596e-38
-0.45845345 -0.15526718 3.1415644 1.6501904e-38
-0.4681541 -0.15804014 3.1225109 1.5395558e-38
-0.45569962 -0.16893159 3.0910974 1.5397015e-38
-0.44178417 -0.12510867 3.1997163 1.6596267e-38
-0.45259658 -0.11658008 3.1639836 1.7978125e-38
-0.45401937 -0.1264413 3.1392179 1.6778859e-38
-0.46199375 -0.12743454 3.1225498 1.6779221e-38
-0.43690261 -0.085552126 3.1967072 1.5856197e-38
-0.45224878 -0.087682582 3.1699195 1.7240203e-38
-0.45527145 -0.093450107 3.1378171 1.6039502e-38
-0.46316457 -0.10518596 3.1202614 1.6778139e-38
-0.44431099 -0.060567699 3.2033427 1.4182226e-38
-0.44940868 -0.05983441 3.1730475 1.6686299e-38
-0.45604834 -0.063663915 3.1420557 1.5113932e-38
-0.46145356 -0.075945146 3.1224241 1.6129532e-38
-0.44453087 -0.028127447 3.2130005 1.3831854e-38
-0.45092225 -0.030720085 3.1679215 1.6410444e-38
-0.45341596 -0.033387098 3.1439562 1.4839884e-38
-0.45993698 -0.045464355 3.1208448 1.5115739e-38
-0.45116425 -0.0012010609 3.2168674 1.2810156e-38
-0.44509447 -0.0041023581 3.2000141 1.2898397e-38
-0.44762447 -0.0010921835 3.1690717 1.7146198e-38
-0.45533529 -0.0013276893 3.1411507 1.5024264e-38
-0.45992965 -0.0075779608 3.1241415 1.3546631e-38
-0.44268376 0.027105447 3.1763253 8.9404383e-39
-0.45876551 0.019841965 3.1357741 1.2809415e-38
-0.47197863 0.014868664 3.1244488 1.5480535e-38
-0.51232404 0.021422645 2.816541 1.9353824e-39
-0.50550288 0.050182164 2.8397565 1.6598787e-39
-0.51262695 0.035561167 2.8122334 2.0272179e-39
-0.50987238 0.081288524 2.8489289 2.5800343e-39
-0.51234829 0.075159654 2.819541 7.838432e-39
-0.50999564 0.11050597 2.838984 2.5814846e-39
-0.51046473 0.11411943 2.8202064 1.5676844e-39
-0.49886703 0.13666949 2.872792 3.2972553e-42
-0.50675631 0.14021677 2.8490558 2.1197834e-39
-0.51256377 0.13689628 2.8192945 2.2119748e-39
-0.50695413 0.15927334 2.8622668 4.3321142e-39
-0.51225078 0.16779156 2.8140934 6.728825e-39
-0.50310683 0.20586227 2.8922467 1.0047868e-38
-0.50602508 0.20940128 2.8744154 1.0140062e-38
-0.51028955 0.19809909 2.8443856 9.0340773e-39
-0.51069123 0.18785189 2.8158112 8.5723789e-39
-0.51768744 0.22718479 2.8675117 1.2350212e-38
-0.52255839 0.22206219 2.8427272 1.0323377e-38
-0.52242559 0.22362995 2.8085694 1.0230824e-38
-0.53292763 0.2259341 2.7819312 9.6794495e-39
-0.53958112 0.22625707 2.7664025 1.0323739e-38
-0.542413 0.22587304 2.7251508 9.8638422e-39
-0.55148315 0.22984661 2.7013404 9.7705648e-39
-0.56035036 0.22793397 2.671412 1.0230824e-38
-0.5639838 0.22930016 2.6340022 1.0046073e-38
-0.56539321 0.22934562 2.6068099 1.0045715e-38
-0.57919919 0.22864337 2.5796821 1.0414857e-38
-0.58139354 0.22809879 2.5468009 1.0875831e-38
-0.58543438 0.22905445 2.5192897 1.069288e-38
-0.59295106 0.23173167 2.492589 1.0784719e-38
-0.60033566 0.23008424 2.4594398 1.0968751e-38
-0.60820574 0.22979502 2.4321089 1.0507414e-38
-0.60995525 0.23047246 2.4072742 1.1522646e-38
-0.61809474 0.23102747 2.3732486 1.0692167e-38
-0.62881005 0.23027253 2.3428321 1.1060946e-38
-0.63722563 0.22844234 2.3155406 1.060033e-38
-0.63810658 0.23033224 2.2829938 1.0508853e-38
-0.65000707 0.23164602 2.254334 1.124534e-38
-0.64988327 0.23167482 2.2204614 1.2074022e-38
-0.65203661 0.22898509 2.1945179 9.7709277e-39
-0.66146195 0.227552 2.1645129 9.954956e-39
-0.67274636 0.22637862 2.1425364 1.0600325e-38
-0.67920506 0.22959143 2.0738878 1.1062032e-38
-0.69090205 0.2275304 2.0525076 1.1521567e-38
-0.68817562 0.22870578 2.0189393 1.14326e-38
-0.71994966 0.22488622 1.9327664 9.220265e-39
-0.62221068 0.23619491 2.4011621 1.0967311e-38
-0.63653082 0.23574029 2.3456213 1.0508493e-38
-0.63286018 0.23672628 2.3104448 1.0967673e-38
-0.64225525 0.23629564 2.2876868 1.1152067e-38
-0.64172745 0.23411852 2.2493668 1.1522645e-38
-0.65423715 0.2339721 2.2248144 1.1244261e-38
-0.65752339 0.234446 2.1968408 1.1061667e-38
-0.66793984 0.23388314 2.1712542 1.0784358e-38
-0.671179 0.23397456 2.1364405 1.0878347e-38
-0.67889589 0.23490681 2.104733 1.1155293e-38
-0.68264705 0.23463243 2.0835631 1.1798869e-38
-0.68891573 0.23464964 2.0496774 1.19829e-38
-0.69539291 0.23633954 2.0222173 1.3458027e-38
-0.70623279 0.23624733 1.9938176 1.2904855e-38
-0.71034896 0.23649612 1.9599705 1.1798151e-38
-0.71557713 0.23599261 1.9284694 1.2535355e-38
-0.71850508 0.23494266 1.9035844 1.2074018e-38
-0.72256273 0.23606128 1.8749709 1.2719387e-38
-0.73709458 0.23620215 1.8464916 1.3454431e-38
-0.73966777 0.2339959 1.8145955 1.2715067e-38
-0.74408805 0.2338313 1.7856948 1.2898018e-38
-0.75015408 0.23439762 1.7556652 1.2531396e-38
-0.76072669 0.23579431 1.7252929 1.2899095e-38
-0.76194644 0.23682852 1.6987287 1.3175321e-38
-0.76902103 0.23636952 1.6716514 1.3908928e-38
-0.77639276 0.23667291 1.638178 1.3542663e-38
-0.78513324 0.23794284 1.6095041 1.3364032e-38
-0.78465432 0.24090086 1.5846779 1.3088886e-38
-0.79779643 0.23929515 1.550601 1.3089244e-38
-0.79868251 0.24286681 1.5249915 1.3273643e-38
-0.8141166 0.23993608 1.4913503 1.3181449e-38
-0.81090379 0.23776184 1.4645019 1.2720112e-38
-0.81880128 0.24252637 1.4277337 1.3180371e-38
-0.83336586 0.24130276 1.4025925 1.235061e-38
-0.80431128 0.25033414 1.490154 1.3086022e-38
-0.80243397 0.25029963 1.4577587 1.2903787e-38
-0.25349391 -1.5804213 3.9788876 3.5019836e-39
-0.2515088 -1.5753622 3.9521632 9.8681806e-39
-0.249327 -1.5530142 3.9754808 3.8711403e-39
-0.24928783 -1.5489626 3.9473386 4.4340433e-39
-0.25041109 -1.5641407 3.9170423 2.680534e-39
-0.25594085 -1.5208416 3.9809139 8.4769575e-39
-0.25151992 -1.518373 3.9488444 8.8558434e-39
-0.25118032 -1.4888589 3.981226 1.3279778e-38
-0.24635912 -1.4922341 3.9499466 1.4384673e-38
-0.24982202 -1.4665443 3.9814472 5.0704065e-39
-0.25250915 -1.4654368 3.9486692 5.1651343e-39
-0.23615569 -1.4196689 3.9829557 2.0194088e-38
-0.25223485 -1.4314921 3.9509733 9.7720193e-39
-0.24491152 -1.4037536 3.9890676 1.0052569e-38
-0.25043926 -1.4063288 3.9513981 9.8642163e-39
-0.23976411 -1.3653265 3.9874682 1.3739315e-38
-0.25091153 -1.3668901 3.9527867 1.0233e-38
-0.23507854 -1.3401356 3.9889293 1.3647122e-38
-0.25500187 -1.3456814 3.9522808 7.8405914e-39
-0.24652019 -1.3414862 3.9212263 6.8264465e-39
-0.23602049 -1.3087602 3.9787478 9.0377039e-39
-0.26064166 -1.3160443 3.9527841 4.9803717e-39
-0.24613802 -1.3214154 3.9253855 4.0620139e-39
-0.23466104 -1.2860633 3.9921181 3.8765507e-39
-0.23567188 -1.2744946 3.9805872 1.3555643e-38
-0.25661147 -1.2901534 3.9516087 5.073296e-39
-0.23167975 -1.2496606 3.9927092 3.5092087e-39
-0.23270784 -1.2429991 3.9786565 1.4015182e-38
-0.24891049 -1.262274 3.949342 5.5324903e-39
-0.24838679 -1.2566622 3.927815 4.7963448e-39
-0.23362781 -1.2125663 3.973562 4.5204795e-39
-0.25941148 -1.2174084 3.9594939 5.4395534e-39
-0.24446513 -1.2269698 3.9286313 4.7967035e-39
-0.23600131 -1.1809833 3.9744668 4.4282839e-39
-0.24576454 -1.1914543 3.9548061 3.9644331e-39
-0.24410267 -1.1947476 3.9297509 4.5197551e-39
-0.25361326 -1.1503905 3.9681003 4.4275636e-39
-0.24741271 -1.1684785 3.9308805 4.5197593e-39
-0.23467439 -1.1300048 3.9753923 3.8772653e-39
-0.24771929 -1.1404345 3.9336977 4.2438899e-39
-0.24634737 -1.0941281 3.9622293 4.6108759e-39
-0.24557546 -1.1075699 3.9329283 4.2435227e-39
-0.24908239 -1.0713955 3.9631453 4.5183215e-39
-0.25145367 -1.0718997 3.9410934 4.5193991e-39
-0.23909441 -1.0365051 3.9703641 4.7949042e-39
-0.25582367 -1.0406815 3.9465978 4.7001723e-39
-0.239436 -1.0106387 3.9635768 4.5208299e-39
-0.25737581 -1.018061 3.9424977 4.4268434e-39
-0.25293681 -0.98048729 3.965966 4.7963434e-39
-0.25726473 -0.98004943 3.9381471 4.3371617e-39
-0.24915734 -0.94362611 3.972599 4.5197551e-39
-0.25148776 -0.95211446 3.9500511 5.0693177e-39
-0.25054231 -0.91188186 3.9736552 4.4279168e-39
-0.25884756 -0.92237705 3.9512062 5.1622336e-39
-0.24385887 -0.89766836 3.9687736 5.3513066e-39
-0.26136643 -0.90315378 3.941118 3.9673058e-39
-0.3511503 -0.74370432 3.4889557 4.5215501e-39
-0.35551986 -0.7440812 3.46469 4.4300762e-39
-0.36278856 -0.73870426 3.432564 5.1658433e-39
-0.37762243 -0.7359376 3.3932533 4.7048694e-39
-0.34909579 -0.70535153 3.5234935 1.8256549e-38
-0.35227507 -0.72014022 3.4964874 1.7702637e-38
-0.3507964 -0.72062296 3.4655056 1.0051134e-38
-0.36142209 -0.72293425 3.435384 6.637721e-39
-0.36756194 -0.72543144 3.4153411 4.8899823e-39
-0.37555459 -0.72341919 3.3858614 7.1030334e-39
-0.34561551 -0.68966383 3.5234594 1.4288878e-38
-0.35644177 -0.68755573 3.4940968 1.4561515e-38
-0.35251129 -0.69439524 3.4698024 1.373752e-38
-0.36277637 -0.68688017 3.4380004 1.4844585e-38
-0.37012294 -0.69223958 3.4132662 1.7793041e-38
-0.36385059 -0.6882562 3.3814301 1.927069e-38
-0.3441315 -0.66973412 3.523721 1.3365461e-38
-0.33963042 -0.66364592 3.4905405 1.299525e-38
-0.3516539 -0.66017699 3.4723177 1.1612326e-38
-0.35951966 -0.66356415 3.4422827 1.1705974e-38
-0.37238014 -0.66502309 3.416002 1.4104495e-38
-0.36509481 -0.66859227 3.3816516 1.5029691e-38
-0.3579818 -0.63682485 3.4706264 1.170596e-38
-0.35887763 -0.62502193 3.4371715 1.1799239e-38
-0.36478224 -0.62458408 3.4157844 9.5890602e-39
-0.35324812 -0.60366589 3.4677827 8.0210366e-39
-0.3565236 -0.60313213 3.432497 1.19858e-38
-0.36936069 -0.59872198 3.4117625 9.2199343e-39
-0.36919907 -0.58675206 3.3791258 7.7444469e-39
-0.36060554 -0.57534689 3.4327159 8.1146658e-39
-0.37087873 -0.57273108 3.4068608 1.0326994e-38
-0.37565488 -0.56899893 3.3825629 8.8518707e-39
-0.37865138 -0.56922334 3.3397651 8.7636309e-39
-0.39133987 -0.56450754 3.3230002 9.0391528e-39
-0.37249327 -0.55192012 3.4367568 1.1243914e-38
-0.37315613 -0.55251354 3.3996205 8.5774488e-39
-0.37686175 -0.54283929 3.3756461 8.391631e-39
-0.380299 -0.54691392 3.3479357 8.2057852e-39
-0.3857215 -0.54414028 3.3125997 8.4866909e-39
-0.40543613 -0.52980161 3.2424519 7.5600627e-39
-0.41534346 -0.53129071 3.178406 7.193078e-39
-0.41071254 -0.51930743 3.202492 7.2845562e-39
-0.4235619 -0.50374925 3.1732743 1.2538587e-38
-0.43045968 -0.50826025 3.1484225 9.4957897e-39
-0.43349719 -0.49569359 3.1748509 1.0794519e-38
-0.43017086 -0.48542604 3.135788 8.7575016e-39
-0.43381134 -0.48435658 3.1085923 9.7709431e-39
-0.43240145 -0.47875297 3.0877497 7.9291941e-39
-0.42950737 -0.44600359 3.1345503 1.0778212e-38
-0.43166414 -0.45649758 3.1048839 8.3825758e-39
-0.43746004 -0.45719948 3.0825145 9.2123547e-39
-0.44182816 -0.45485634 3.0483587 6.1705814e-39
-0.43173316 -0.41647196 3.1353188 1.2439888e-38
-0.43007311 -0.41971368 3.1053164 1.2805798e-38
-0.43887064 -0.42424962 3.0786695 1.2345536e-38
-0.44650966 -0.43089366 3.0617239 1.2624291e-38
-0.43003491 -0.39101717 3.1347423 1.2531006e-38
-0.43003771 -0.38863438 3.1090739 1.2897638e-38
-0.4383496 -0.39571774 3.0865109 1.2159358e-38
-0.45001641 -0.40696493 3.0636778 1.2715039e-38
-0.42847094 -0.35507268 3.1355536 1.2348762e-38
-0.43064901 -0.36238253 3.1050651 1.2525625e-38
-0.44139791 -0.36609599 3.0828896 1.2616736e-38
-0.44350323 -0.37705699 3.0655749 1.2160795e-38
-0.43617171 -0.33108678 3.1309142 1.2256209e-38
-0.43302402 -0.33154252 3.1086407 1.2434143e-38
-0.43564409 -0.34116229 3.0759635 1.234015e-38
-0.44181356 -0.335031 3.0580978 1.2713244e-38
-0.43666202 -0.29158619 3.1383069 1.262032e-38
-0.43408898 -0.30233306 3.1056511 1.2616019e-38
-0.43607089 -0.30607125 3.0806766 1.2432347e-38
-0.4551163 -0.31505921 3.0600998 1.2895127e-38
-0.43045199 -0.27111387 3.1362026 1.2809028e-38
-0.4294802 -0.27203572 3.1065707 1.3451526e-38
-0.43531787 -0.2707361 3.0861094 1.3174218e-38
-0.44554892 -0.27956137 3.0562189 1.3267125e-38
-0.43432465 -0.2435004 3.133342 1.0962962e-38
-0.42983726 -0.24065109 3.1026993 1.1240639e-38
-0.4377273 -0.24770205 3.078433 1.2252623e-38
-0.41350156 -0.2138669 3.166286 1.5211536e-38
-0.42744067 -0.20884591 3.1451123 1.6133846e-38
-0.42894089 -0.21548162 3.1078167 1.6500832e-38
-0.44063649 -0.22016245 3.0758266 1.4194122e-38
-0.41154093 -0.17783248 3.1752577 1.3638768e-38
-0.4296262 -0.18640597 3.1368368 1.4565795e-38
-0.42902634 -0.18578669 3.1118739 1.3826437e-38
-0.42786771 -0.1437304 3.1861806 1.7148017e-38
-0.41203305 -0.14953908 3.1579735 1.6502264e-38
-0.42717555 -0.15410931 3.1378057 1.6594464e-38
-0.4324483 -0.15311444 3.1125181 1.6132767e-38
-0.42332274 -0.12172375 3.1712074 1.6687026e-38
-0.42860088 -0.12170834 3.1401479 1.7608623e-38
-0.42731425 -0.13543481 3.1096876 1.7424953e-38
-0.42010242 -0.089245416 3.1649776 1.7700095e-38
-0.42748204 -0.093076177 3.1350241 1.6592311e-38
-0.42641333 -0.10308301 3.1085696 1.6594831e-38
-0.42011714 -0.057762425 3.16342 1.4745865e-38
-0.42945606 -0.062172584 3.138541 1.5484879e-38
-0.42332211 -0.074196108 3.1094749 1.594515e-38
-0.41687694 -0.025754435 3.1810808 1.4195574e-38
-0.42173412 -0.025259595 3.1586428 1.4380715e-38
-0.42458853 -0.033627972 3.1347609 1.4932078e-38
-0.42381319 -0.046883296 3.115906 1.4837352e-38
-0.41652399 -0.0054556858 3.1814966 1.1883894e-38
-0.42256296 -0.00052167039 3.1540921 1.4839506e-38
-0.42799059 -0.0043470152 3.1339164 1.5669273e-38
-0.42428347 -0.0046448689 3.1097939 1.4472888e-38
-0.47157851 0.0030113256 2.8625209 1.5396651e-38
-0.48946238 0.0020071187 2.8100221 1.1981489e-38
-0.43083149 0.01758321 3.1369352 1.3733159e-38
-0.4337962 0.021448506 3.1048846 1.087402e-38
-0.48662424 0.023360904 2.8418937 1.4198475e-38
-0.49148509 0.014453455 2.8066735 1.1150974e-38
-0.48778668 0.046029188 2.8404784 1.1893591e-38
-0.49788329 0.047354776 2.8075509 8.383673e-39
-0.48485065 0.075657733 2.8430662 1.1618798e-38
-0.49387997 0.077351049 2.8049901 1.0868985e-38
-0.49266109 0.11684763 2.8717349 9.2264055e-39
-0.48343036 0.10758601 2.8397975 1.0971999e-38
-0.49359441 0.10758759 2.8031979 9.6740391e-39
-0.50062966 0.093812332 2.7762847 2.0283039e-39
-0.49317887 0.13641213 2.8721969 6.55094e-39
-0.48715931 0.13344753 2.8388627 7.745149e-39
-0.49378535 0.13913447 2.804738 9.9524225e-39
-0.49139258 0.17266315 2.8453 7.3741986e-39
-0.49930835 0.16720194 2.8051717 9.3077775e-39
-0.49062589 0.17560597 2.7907035 1.0689985e-38
-0.48630774 0.20071892 2.8621345 1.0508849e-38
-0.48974806 0.20010212 2.8419654 9.954956e-39
-0.49460596 0.20058206 2.8076649 1.032265e-38
-0.48946369 0.21822536 2.853915 1.0323373e-38
-0.48559695 0.22047424 2.8351603 1.0691445e-38
-0.49455202 0.21954589 2.8046708 1.087547e-38
-0.50238293 0.22470373 2.7739811 1.087547e-38
-0.50802726 0.22486725 2.7495348 1.1060582e-38
-0.51524979 0.22777325 2.7171695 1.0415217e-38
-0.52353489 0.22911505 2.682447 1.0507411e-38
-0.53920913 0.22882774 2.6570249 9.9549574e-39
-0.53428268 0.22605625 2.6305571 1.0231183e-38
-0.53729314 0.22738518 2.6026728 1.0230107e-38
-0.54337788 0.23082423 2.5739083 1.0231181e-38
-0.55781811 0.22861418 2.5431914 1.0508487e-38
-0.56078064 0.22864321 2.511759 1.0508847e-38
-0.56828481 0.22980213 2.4844887 1.0507414e-38
-0.56829441 0.23027395 2.4544709 1.133753e-38
-0.57788223 0.2294265 2.4251781 1.060033e-38
-0.58072621 0.22956689 2.3976176 1.1060948e-38
-0.59247434 0.22691795 2.3665214 1.0600687e-38
-0.59758788 0.23064381 2.3403096 1.0877274e-38
-0.60816479 0.22865589 2.3086176 1.0876554e-38
-0.60472822 0.22880873 2.2781975 1.0876915e-38
-0.6142413 0.22652914 2.2508304 1.0415941e-38
-0.62072194 0.22689329 2.2153177 1.0784002e-38
-0.63179362 0.22871885 2.190387 9.7709263e-39
-0.62636185 0.22871235 2.1614075 9.771285e-39
-0.63904476 0.22886115 2.1273334 1.0786149e-38
-0.65243775 0.22670138 2.0790215 1.1340044e-38
-0.67570245 0.22606866 2.0361347 1.1798153e-38
-0.67220438 0.22880854 2.011375 1.1892142e-38
-0.70081806 0.21821137 1.8474203 9.9553133e-39
-0.59786886 0.23697601 2.3865182 9.9553133e-39
-0.58136916 0.23579419 2.3773324 1.0046067e-38
-0.61185181 0.23696153 2.3367214 1.1060952e-38
-0.6056639 0.23490135 2.2871923 1.0321589e-38
-0.60896552 0.23398417 2.2502332 1.0321945e-38
-0.61439019 0.23355229 2.2191749 1.1614839e-38
-0.63774717 0.23448081 2.1960022 1.179923e-38
-0.63478953 0.23349045 2.1619508 1.1706314e-38
-0.6400677 0.23309195 2.1302297 1.1430806e-38
-0.64980793 0.2338663 2.105051 1.1614837e-38
-0.65569365 0.23425546 2.0735075 1.1430446e-38
-0.65512049 0.23432231 2.0461495 1.1707032e-38
-0.66728079 0.23563798 2.0147734 1.2075095e-38
-0.6699602 0.23459116 1.9825665 1.2443878e-38
-0.68056917 0.23532577 1.9540789 1.2536432e-38
-0.6861183 0.23672155 1.9281553 1.225805e-38
-0.69264483 0.23627938 1.8994495 1.2904499e-38
-0.7002666 0.23556571 1.8656167 1.290162e-38
-0.7009626 0.23709042 1.8406276 1.3634864e-38
-0.70975941 0.23525999 1.8093123 1.4002925e-38
-0.71256614 0.23459858 1.7822075 1.3175326e-38
-0.72633666 0.23269138 1.7525828 1.2532116e-38
-0.73535031 0.23590007 1.7158489 1.3450836e-38
-0.73377675 0.23694727 1.6904708 1.2532471e-38
-0.7413469 0.23628262 1.6626761 1.3268238e-38
-0.74922884 0.23706275 1.6362069 1.3633418e-38
-0.75260746 0.23782992 1.6071368 1.3087442e-38
-0.75971788 0.23839007 1.5728431 1.2536431e-38
-0.77321267 0.24169438 1.5427281 1.3733538e-38
-0.76568633 0.23836629 1.5111777 1.3087451e-38
-0.77855128 0.23912799 1.4842819 1.2720468e-38
-0.78378373 0.23797923 1.4585756 1.2996699e-38
-0.79109657 0.23929891 1.4298911 1.0969479e-38
-0.79592597 0.23888497 1.4038726 1.1982551e-38
-0.80332941 0.23647355 1.3660699 1.2168014e-38
-0.74736363 0.25118476 1.5808563 1.2168373e-38
-0.79598987 0.25001174 1.4297304 1.4101599e-38
-0.79855412 0.24884045 1.4000393 1.4470745e-38
-0.80959564 0.25023323 1.3701088 1.4469675e-38
-0.21512559 -1.576694 3.971947 5.255888e-39
-0.20911783 -1.5453578 3.97208 9.0395073e-39
-0.21276028 -1.5536315 3.9469199 1.6873614e-38
-0.23184343 -1.5514855 3.9194057 1.5675781e-38
-0.21025622 -1.5188359 3.973938 1.0328074e-38
-0.2268814 -1.5154303 3.9461668 1.1338266e-38
-0.23229814 -1.5199789 3.9181247 1.5215886e-38
-0.23068281 -1.5299001 3.9012072 1.7520056e-38
-0.2088636 -1.4853874 3.9745831 9.5015645e-39
-0.22574061 -1.488095 3.9475188 1.4109174e-38
-0.23296148 -1.4954835 3.9168935 1.0050424e-38
-0.21303384 -1.4526489 3.97579 7.5622221e-39
-0.22559987 -1.4635552 3.9489491 1.0325919e-38
-0.22654043 -1.4649396 3.9170797 1.2079071e-38
-0.21989764 -1.4239134 3.9802272 1.0973441e-38
-0.22614524 -1.4342501 3.942188 1.2266347e-38
-0.22952074 -1.4290327 3.9207828 1.3464535e-38
-0.21250999 -1.4002475 3.9767332 8.4816448e-39
-0.2225813 -1.4008412 3.9472857 1.632114e-38
-0.22894834 -1.400082 3.9182074 1.62286e-38
-0.19966432 -1.3828115 3.9854422 2.2864518e-38
-0.21301012 -1.3656636 3.9735725 9.4939975e-39
-0.22186998 -1.3672476 3.9492328 1.3646398e-38
-0.22720499 -1.3711071 3.9170253 1.71502e-38
-0.21181707 -1.3352405 3.9881237 9.315032e-39
-0.21318519 -1.3349198 3.9752684 9.681281e-39
-0.2218003 -1.3390349 3.9463139 1.438433e-38
-0.22034097 -1.3414346 3.9173808 1.6137128e-38
-0.20515861 -1.3091322 3.9880097 1.5307019e-38
-0.21525806 -1.304562 3.9667501 1.4750216e-38
-0.22214903 -1.3082097 3.9449034 1.7517544e-38
-0.2263573 -1.3115076 3.9146354 1.5675791e-38
-0.2068706 -1.2820342 3.9889181 1.3644962e-38
-0.21293378 -1.2735275 3.9712889 1.2538603e-38
-0.22485317 -1.2845565 3.9418156 1.6962199e-38
-0.22975063 -1.2831341 3.9197392 1.3555651e-38
-0.21292454 -1.2443901 3.9678283 1.290739e-38
-0.23004189 -1.2535146 3.9293487 1.5582515e-38
-0.22457479 -1.2474014 3.9157047 1.7427869e-38
-0.21592885 -1.2149299 3.9672546 1.6595218e-38
-0.22960427 -1.2185811 3.9398112 1.1158213e-38
-0.22653016 -1.2175546 3.9163771 1.585982e-38
-0.21521771 -1.186729 3.9668763 1.751753e-38
-0.22472808 -1.195719 3.9315522 9.4075738e-39
-0.22584796 -1.1917827 3.9172099 1.5401725e-38
-0.21682473 -1.158219 3.9648876 1.2356016e-38
-0.22547227 -1.1613462 3.9325931 1.4940393e-38
-0.22571053 -1.1622101 3.9153993 1.1806105e-38
-0.2197184 -1.1297015 3.9729066 8.576367e-39
-0.22513655 -1.1320063 3.9399388 1.7981044e-38
-0.22625953 -1.1290272 3.9186666 1.5768345e-38
-0.21747728 -1.098562 3.9690175 1.5398119e-38
-0.22544394 -1.1007826 3.9295154 1.4016631e-38
-0.22524084 -1.0954393 3.9094465 1.3555294e-38
-0.21696047 -1.0731175 3.9640927 1.8531326e-38
